ply
format ascii 1.0
element vertex 1255
property float x
property float y
property float z
property uchar red
property uchar green
property uchar blue
end_header
24.2664 -14.7738 18.0136  255 255 255
43.6176 -45.1272 15.5967  255 255 255
-32.8933 -49.7593 26.3193  255 255 255
-28.6659 17.9964 -50.9032  255 255 255
35.6342 -47.0484 18.3732  255 255 255
41.7328 28.2295 -67.1262  255 255 255
-32.8216 29.8943 -63.9118  255 255 255
-85.7511 -37.7308 16.6579  255 255 255
50.8057 6.25996 -40.8012  255 255 255
57.5776 -26.5181 -6.11665  255 255 255
43.5401 42.7419 -82.9892  255 255 255
-28.886 29.2741 -63.3824  255 255 255
-28.3675 -42.9894 22.0892  255 255 255
-49.1892 -8.20802 -20.1376  255 255 255
22.7909 29.6887 -67.5313  255 255 255
-31.428 -52.272 29.0467  255 255 255
18.1548 34.9258 -72.6077  255 255 255
-34.9317 1.89981 -32.1147  255 255 255
-23.902 13.5033 -45.338  255 255 255
33.6914 75.8085 -81.4517  255 255 255
17.5002 15.4112 -50.135  255 255 255
30.4928 65.6921 -86.2951  255 255 255
-36.7717 -50.9596 27.8514  255 255 255
5.81244 -58.0445 33.0412  255 255 255
-15.9743 -26.8466 34.799  255 255 255
-49.508 -3.02132 -26.0002  255 255 255
0.788171 46.7941 -79.1305  255 255 255
38.1231 -34.4875 3.4456  255 255 255
49.0584 55.2392 -99.49  255 255 255
0.321117 41.0612 -79.1443  255 255 255
-55.1023 28.2248 -48.7728  255 255 255
42.6254 -47.3627 18.0862  255 255 255
50.1042 12.6793 -38.5678  255 255 255
-44.1383 -33.4361 8.61432  255 255 255
-30.0219 18.5071 -51.2174  255 255 255
53.7273 -45.1046 15.8041  255 255 255
-45.5855 -9.28048 -19.2749  255 255 255
-5.38331 20.7598 -55.4517  255 255 255
6.24099 56.7544 -74.8243  255 255 255
-73.9923 23.0213 -49.1242  255 255 255
48.3745 17.0761 -39.735  255 255 255
50.228 14.1085 -37.8037  255 255 255
36.0026 63.8175 -93.7716  255 255 255
-103.722 15.6574 -45.228  255 255 255
25.5148 29.3811 -67.1  255 255 255
44.2091 -44.5177 15.0315  255 255 255
-47.1157 10.422 -41.177  255 255 255
-68.8771 0.111797 -28.1964  255 255 255
50.8743 -44.0857 13.8975  255 255 255
24.6155 8.32689 -42.6223  255 255 255
22.3104 21.5166 -57.9086  255 255 255
-60.4771 24.4139 -46.9475  255 255 255
-84.4348 -11.663 -14.6251  255 255 255
48.2946 29.2347 -67.8659  255 255 255
47.7139 -38.149 7.1532  255 255 255
-35.5585 14.549 -46.6856  255 255 255
-53.7273 26.9631 -49.451  255 255 255
25.8819 38.1969 -76.4584  255 255 255
55.0402 43.0323 -85.3799  255 255 255
-50.1495 -9.98991 -17.7645  255 255 255
17.0578 23.9771 -60.1485  255 255 255
37.5294 -49.9131 21.8278  255 255 255
-25.7024 -55.7314 32.7451  255 255 255
-26.7986 -55.7441 32.8021  255 255 255
-45.2001 -52.1898 30.2391  255 255 255
-70.4557 36.0792 -35.5257  255 255 255
36.2997 -43.6316 14.2201  255 255 255
-47.1895 -50.7121 28.5938  255 255 255
-73.8538 -56.9582 39.7178  255 255 255
-26.7025 17.9202 -50.8934  255 255 255
16.1993 -56.1375 29.8844  255 255 255
34.7031 -46.4216 17.6402  255 255 255
38.6916 -49.4816 21.0587  255 255 255
-78.2551 2.43139 -30.6056  255 255 255
47.7813 12.4757 -6.53078  255 255 255
17.8483 20.095 -56.2035  255 255 255
-3.30575 54.5008 -71.0775  255 255 255
-44.9647 -10.7579 -16.5438  255 255 255
4.73022 54.7555 -76.3528  255 255 255
-74.231 -55.7424 37.7522  255 255 255
35.7637 43.3291 -83.5386  255 255 255
-18.6061 19.0777 -52.3628  255 255 255
35.3419 -49.9646 21.5407  255 255 255
41.8955 -26.8784 -4.79519  255 255 255
28.5226 27.8505 -64.3658  255 255 255
17.7867 14.4772 -49.729  255 255 255
50.7642 38.8328 -79.2743  255 255 255
-30.9114 -50.9412 27.5375  255 255 255
-34.5105 -48.3933 25.2185  255 255 255
25.6442 -16.1428 19.0824  255 255 255
15.3002 23.8479 -60.1594  255 255 255
48.0611 14.7027 -42.5606  255 255 255
-18.5142 2.45837 1.63085  255 255 255
52.3165 -43.5492 14.2637  255 255 255
56.0484 55.15 -98.6556  255 255 255
-19.9028 17.8281 -51.094  255 255 255
-53.1413 -4.85785 -23.2217  255 255 255
-63.3586 18.4395 -49.4998  255 255 255
-9.28267 -3.35926 29.2873  255 255 255
17.4798 15.8451 -51.592  255 255 255
36.2186 -40.0526 10.5008  255 255 255
7.22766 57.4934 -75.1219  255 255 255
32.6325 72.1895 -83.8917  255 255 255
47.0663 14.5238 -44.1055  255 255 255
48.3537 11.1203 -42.2791  255 255 255
-18.6722 19.6939 -52.5341  255 255 255
39.1571 -44.5589 15.1326  255 255 255
-43.8529 -34.2096 9.2987  255 255 255
-46.0155 -44.3204 20.6851  255 255 255
-114.072 -11.6667 -10.7644  255 255 255
54.7179 -44.5269 15.294  255 255 255
51.0175 6.68774 -40.2579  255 255 255
30.5758 -49.3707 20.7873  255 255 255
-85.532 -6.11282 -20.5229  255 255 255
32.0836 -52.2479 24.4265  255 255 255
23.1925 67.015 -80.2662  255 255 255
-77.3393 -47.021 27.0348  255 255 255
-30.9644 15.7804 -47.9953  255 255 255
4.52312 -48.2107 29.5924  255 255 255
-38.1368 -39.402 14.7772  255 255 255
44.3167 38.4128 -78.8425  255 255 255
48.3906 -17.3502 -16.1943  255 255 255
33.0589 -48.3798 19.7856  255 255 255
-2.75595 -30.1439 37.7173  255 255 255
-76.8048 -51.0274 32.3071  255 255 255
-104.074 -8.8041 -15.5463  255 255 255
-47.1157 10.422 -41.177  255 255 255
-65.1483 -56.7268 38.4547  255 255 255
-42.0959 -35.7797 10.7944  255 255 255
-43.3788 -25.3628 -0.862599  255 255 255
17.9352 -47.8506 23.873  255 255 255
-32.3398 7.46577 -39.0471  255 255 255
36.7886 -39.9409 10.2854  255 255 255
-33.6513 2.26447 -32.824  255 255 255
7.51512 -57.4549 31.817  255 255 255
-75.463 23.1913 -48.6051  255 255 255
42.0761 11.1883 -47.1389  255 255 255
45.0029 46.8386 -86.9266  255 255 255
13.5022 15.1337 -50.6683  255 255 255
-67.0454 -54.3228 35.2196  255 255 255
0.403546 42.0364 -79.6714  255 255 255
15.152 19.4712 -55.7232  255 255 255
-76.407 -52.7089 34.3924  255 255 255
49.2434 15.5697 -35.5288  255 255 255
-5.26536 17.4463 -50.9069  255 255 255
51.9331 47.204 -89.4003  255 255 255
-33.5889 -57.9066 35.2268  255 255 255
53.4067 -46.3162 17.0552  255 255 255
-75.6318 24.552 -47.3036  255 255 255
21.8725 -53.6124 26.6429  255 255 255
24.2208 -20.2234 23.7633  255 255 255
42.5012 -24.6053 -7.481  255 255 255
-33.0498 -54.0082 31.2491  255 255 255
-26.6958 -57.9654 34.9618  255 255 255
-22.0956 -54.6878 30.6691  255 255 255
54.6901 -42.9844 12.6183  255 255 255
5.10736 -58.2045 31.6432  255 255 255
49.8212 -44.3456 14.5996  255 255 255
41.769 -50.4429 22.1453  255 255 255
-24.157 -56.6868 33.532  255 255 255
-24.6237 -55.8001 32.6675  255 255 255
-2.00994 37.6835 -74.5728  255 255 255
-2.00994 37.6835 -74.5728  255 255 255
53.3845 -47.4811 18.5744  255 255 255
38.9879 -41.4491 11.9768  255 255 255
-37.2629 -47.8351 24.336  255 255 255
-33.8689 2.75169 -32.9948  255 255 255
6.92435 -57.137 31.6913  255 255 255
41.741 74.1622 -88.2907  255 255 255
35.7384 -46.5789 17.6858  255 255 255
1.04198 -59.3505 34.3808  255 255 255
-35.0524 -49.1434 25.8058  255 255 255
36.7727 -46.0314 17.1543  255 255 255
34.683 -48.6844 19.89  255 255 255
-26.3923 11.5293 -43.969  255 255 255
37.3039 -46.372 17.1598  255 255 255
72.513 85.2952 -99.5324  255 255 255
-71.2387 55.1225 -15.7459  255 255 255
-71.2387 55.1225 -15.7459  255 255 255
-25.5983 63.9877 -43.9386  255 255 255
50.3467 80.1313 -87.8716  255 255 255
61.2531 82.1132 -93.4732  255 255 255
-57.6835 57.5 -24.338  255 255 255
39.4556 78.2515 -83.6249  255 255 255
-26.8925 63.5977 -43.4184  255 255 255
-80.2077 52.7929 -9.88287  255 255 255
64.8605 82.5537 -95.6181  255 255 255
-74.4821 53.9403 -13.8163  255 255 255
-67.9807 55.4115 -18.4962  255 255 255
-31.6376 62.3247 -40.6177  255 255 255
61.1005 81.8508 -94.2894  255 255 255
-26.5222 63.2525 -43.9637  255 255 255
-26.5222 63.2525 -43.9637  255 255 255
54.3812 48.908 -8.68074  255 255 255
54.3812 48.908 -8.68074  255 255 255
-40.5702 60.2273 -35.6012  255 255 255
-28.0929 62.7656 -43.5812  255 255 255
-72.667 53.9395 -15.8636  255 255 255
-51.3328 57.8065 -28.694  255 255 255
-51.3328 57.8065 -28.694  255 255 255
-43.0976 59.1991 -33.3805  255 255 255
47.9501 78.2763 -87.5017  255 255 255
61.9056 81.1786 -95.3255  255 255 255
52.5586 49.4806 -11.5018  255 255 255
9.75355 70.2716 -66.8825  255 255 255
33.9467 74.8869 -79.7006  255 255 255
48.3085 78.1202 -88.2181  255 255 255
16.1335 71.0967 -69.9241  255 255 255
-67.4239 54.4442 -19.4548  255 255 255
47.8268 77.5763 -88.2095  255 255 255
52.5591 49.0309 -11.7545  255 255 255
59.6784 80.0247 -94.9347  255 255 255
50.7401 50.182 -15.3217  255 255 255
50.7332 50.1822 -15.3137  255 255 255
-56.1563 56.407 -26.9301  255 255 255
53.7695 48.083 -9.84769  255 255 255
-57.3771 56.0254 -26.0003  255 255 255
-27.7166 61.7493 -44.5756  255 255 255
-68.0013 53.8085 -18.849  255 255 255
-68.0636 53.9319 -19.207  255 255 255
-57.0009 56.0519 -26.3943  255 255 255
-3.75556 66.5011 -58.8819  255 255 255
48.5134 51.6191 -19.6925  255 255 255
-69.4325 53.9508 -19.515  255 255 255
-58.3685 55.4868 -25.3646  255 255 255
-52.2318 56.6685 -29.3799  255 255 255
-52.1982 56.6831 -29.4264  255 255 255
55.5637 46.3955 -6.42942  255 255 255
61.1319 79.3562 -95.7438  255 255 255
-68.0279 53.6 -19.5328  255 255 255
67.4611 80.8764 -99.8632  255 255 255
-31.1606 60.6937 -42.759  255 255 255
-0.353378 66.887 -61.454  255 255 255
35.8639 74.3655 -82.4578  255 255 255
35.8639 74.3655 -82.4578  255 255 255
57.7615 78.6798 -94.0891  255 255 255
-70.6468 53.1408 -18.0062  255 255 255
52.3318 48.5992 -12.6789  255 255 255
3.56023 67.0338 -62.9833  255 255 255
23.2215 71.5064 -75.0086  255 255 255
-69.3682 53.657 -20.3449  255 255 255
52.276 48.5119 -13.3215  255 255 255
52.276 48.5119 -13.3215  255 255 255
10.4547 68.4772 -67.625  255 255 255
-62.2661 54.3043 -23.7146  255 255 255
-57.1656 55.5862 -27.7414  255 255 255
-57.105 55.2923 -26.8908  255 255 255
-49.7993 56.8658 -32.1264  255 255 255
-40.4059 58.401 -37.3356  255 255 255
39.2936 74.5681 -84.6742  255 255 255
55.1479 46.0691 -7.35352  255 255 255
-58.3743 55.1124 -26.7419  255 255 255
-58.3711 55.0636 -26.6475  255 255 255
-3.09314 65.6718 -60.2085  255 255 255
66.5613 79.8447 -99.6826  255 255 255
-50.9474 56.3946 -31.2601  255 255 255
10.9149 68.4716 -68.7873  255 255 255
-35.1578 59.2078 -40.9575  255 255 255
-4.11948 65.2242 -59.4753  255 255 255
-71.1201 52.3493 -18.3473  255 255 255
61.8409 78.5898 -97.43  255 255 255
53.9118 46.7783 -9.77552  255 255 255
-59.7527 54.3999 -25.5853  255 255 255
-50.3514 56.0873 -32.1009  255 255 255
44.8489 74.7317 -88.1641  255 255 255
-73.7247 52.1029 -18.3306  255 255 255
-49.7455 55.9463 -31.9739  255 255 255
50.7237 48.664 -16.8254  255 255 255
-77.1029 50.6408 -14.4836  255 255 255
-50.5902 55.4377 -31.8438  255 255 255
-65.1044 52.2309 -21.0882  255 255 255
52.9994 46.7475 -12.3607  255 255 255
-52.4181 54.9296 -30.6198  255 255 255
-51.5119 55.2989 -31.7541  255 255 255
54.6272 45.3711 -8.53215  255 255 255
-65.6887 51.975 -20.7514  255 255 255
-62.8575 52.9834 -24.2313  255 255 255
35.3106 72.1688 -83.8287  255 255 255
-41.6707 56.8859 -37.6319  255 255 255
-41.632 56.7588 -37.338  255 255 255
54.9001 45.2538 -9.12253  255 255 255
54.879 75.7003 -94.6421  255 255 255
40.7517 72.6061 -87.2694  255 255 255
44.1264 73.4168 -89.5272  255 255 255
-55.9284 53.7617 -29.1172  255 255 255
45.7847 73.3969 -89.9316  255 255 255
-90.0723 51.9112 -19.857  255 255 255
-82.801 49.0277 -12.3842  255 255 255
-82.6239 48.7822 -11.738  255 255 255
-67.2855 52.0118 -22.9276  255 255 255
39.1752 72.0565 -86.428  255 255 255
64.0076 76.9114 -100.126  255 255 255
54.3382 45.107 -9.98615  255 255 255
-62.5478 52.6426 -25.375  255 255 255
-40.3644 56.4691 -39.1579  255 255 255
-51.043 54.0611 -31.4872  255 255 255
26.9416 69.032 -78.56  255 255 255
-31.6552 57.63 -43.9698  255 255 255
55.8053 43.7874 -7.33565  255 255 255
-53.1162 53.9346 -31.8229  255 255 255
-8.56198 61.9895 -59.0436  255 255 255
55.1078 44.2109 -9.06181  255 255 255
-75.0561 49.7021 -17.1431  255 255 255
-59.3773 52.4685 -27.1593  255 255 255
-67.1257 51.215 -22.746  255 255 255
53.0303 73.985 -95.0142  255 255 255
19.4229 67.3688 -76.0031  255 255 255
49.8316 36.0958 13.5549  255 255 255
-51.225 53.8799 -33.0523  255 255 255
-40.4767 55.7103 -39.4669  255 255 255
-82.1951 48.2974 -13.1843  255 255 255
-77.2569 49.0435 -15.9434  255 255 255
-73.7152 49.3646 -17.2963  255 255 255
-28.9953 57.9364 -47.3333  255 255 255
-28.9953 57.9364 -47.3333  255 255 255
53.4226 73.7199 -95.122  255 255 255
11.983 65.5172 -71.7082  255 255 255
18.0602 66.9161 -75.8285  255 255 255
-39.573 55.6302 -40.2694  255 255 255
10.6361 65.2506 -71.3032  255 255 255
-115.321 64.7123 -57.6308  255 255 255
-13.8589 60.4161 -56.5068  255 255 255
53.8414 73.6061 -95.8648  255 255 255
-52.4021 53.4049 -32.7737  255 255 255
-52.4353 53.4169 -32.7752  255 255 255
-41.4553 55.3137 -39.6191  255 255 255
64.6339 75.6444 -102.461  255 255 255
-53.8624 52.856 -31.5807  255 255 255
-25.7703 57.8764 -49.5194  255 255 255
-25.7789 57.8562 -49.4778  255 255 255
-25.7703 57.8764 -49.5194  255 255 255
-75.3283 48.843 -17.6956  255 255 255
55.5597 43.1299 -8.90214  255 255 255
56.2705 42.4253 -7.07818  255 255 255
52.6265 33.4836 18.7087  255 255 255
-65.5508 50.5515 -24.7185  255 255 255
-41.7594 54.2199 -38.3853  255 255 255
0.941584 62.4151 -65.5301  255 255 255
54.4965 72.8833 -97.1012  255 255 255
-76.9158 48.5507 -17.6583  255 255 255
55.7322 42.6442 -8.71983  255 255 255
-40.7907 54.6639 -40.5464  255 255 255
56.1208 42.24 -7.69397  255 255 255
52.565 33.1288 18.8799  255 255 255
-52.3736 52.4679 -33.0643  255 255 255
-52.3652 52.5153 -33.1359  255 255 255
-8.2055 60.4825 -60.654  255 255 255
49.7971 34.6216 13.7988  255 255 255
-8.57186 60.1648 -60.952  255 255 255
-74.6302 48.3162 -19.5616  255 255 255
-61.9728 50.5092 -28.4314  255 255 255
-51.6758 52.1316 -34.2303  255 255 255
-10.2852 59.4798 -59.857  255 255 255
-10.9713 59.3149 -59.6712  255 255 255
-0.834819 61.1886 -65.6172  255 255 255
-1.43112 60.7408 -64.4515  255 255 255
-1.88448 60.8027 -64.8678  255 255 255
-33.7686 54.9042 -45.3997  255 255 255
-33.7686 54.9042 -45.3997  255 255 255
-77.5203 47.4314 -17.9392  255 255 255
-10.6219 59.1622 -60.1327  255 255 255
-0.962621 60.8742 -65.8954  255 255 255
-52.6612 51.2836 -33.0811  255 255 255
-1.83643 60.4928 -65.2235  255 255 255
49.2312 34.4662 12.1413  255 255 255
-25.912 56.1862 -50.8776  255 255 255
-54.6116 51.1654 -33.0516  255 255 255
-4.83363 59.8814 -63.6294  255 255 255
-1.3607 60.3936 -65.8829  255 255 255
55.411 40.9385 -7.96147  255 255 255
52.8803 42.829 -14.6931  255 255 255
-2.80938 59.7527 -65.7348  255 255 255
3.88156 60.9397 -69.6535  255 255 255
68.7955 73.1936 -107.217  255 255 255
-62.7975 49.2339 -28.3448  255 255 255
-3.33714 59.4172 -65.0556  255 255 255
52.953 31.8031 18.1733  255 255 255
-37.2299 53.3393 -44.6181  255 255 255
1.44285 60.2429 -68.2935  255 255 255
-17.6455 56.4214 -55.7762  255 255 255
53.0362 42.4716 -14.823  255 255 255
-8.36685 58.3594 -62.5186  255 255 255
-113.967 60.7992 -58.0094  255 255 255
-25.4525 55.0931 -51.6681  255 255 255
-18.9241 56.3226 -55.968  255 255 255
-21.2113 55.5331 -53.9434  255 255 255
-15.5603 56.8335 -58.3565  255 255 255
-2.77267 59.15 -66.3118  255 255 255
50.16 33.115 12.8484  255 255 255
52.7604 31.5531 17.5911  255 255 255
49.1725 44.3061 -22.6234  255 255 255
53.8584 30.7847 19.4882  255 255 255
-21.518 55.4701 -54.9762  255 255 255
-3.64737 58.3933 -65.3282  255 255 255
55.6434 40.0504 -9.81448  255 255 255
55.6434 40.0504 -9.81448  255 255 255
-114.623 60.1233 -58.8655  255 255 255
-40.9481 51.8547 -42.9925  255 255 255
-54.8427 49.1433 -34.3803  255 255 255
-54.7738 49.0171 -34.0491  255 255 255
-38.7766 51.4691 -43.8075  255 255 255
-38.7766 51.4691 -43.8075  255 255 255
56.0418 28.7557 23.8532  255 255 255
-58.0784 48.3535 -32.1551  255 255 255
-58.0044 48.2925 -31.9925  255 255 255
-27.4796 53.4141 -51.6405  255 255 255
-61.816 47.7668 -30.3477  255 255 255
51.3642 31.3204 15.1071  255 255 255
51.5793 31.614 13.948  255 255 255
-77.8232 45.0641 -19.8242  255 255 255
-77.8232 45.0641 -19.8242  255 255 255
-52.6452 49.1789 -36.4741  255 255 255
56.178 28.4352 23.8844  255 255 255
52.9159 30.2584 17.941  255 255 255
-23.4848 53.7915 -54.8904  255 255 255
-18.4482 54.6303 -58.0903  255 255 255
55.1794 39.7071 -12.3568  255 255 255
53.3086 29.9966 18.1926  255 255 255
48.3035 43.4854 -25.2019  255 255 255
-32.9304 51.9272 -49.1066  255 255 255
43.8245 65.5741 -95.2887  255 255 255
-64.6018 46.6001 -28.8814  255 255 255
-64.6018 46.6001 -28.8814  255 255 255
-15.9279 54.711 -59.8434  255 255 255
50.0555 31.8109 11.6837  255 255 255
51.5988 30.9397 14.5901  255 255 255
51.5988 30.9397 14.5901  255 255 255
-21.6058 53.6727 -56.4237  255 255 255
-21.6125 53.7094 -56.5179  255 255 255
52.5267 30.032 17.1357  255 255 255
-27.0241 52.7401 -53.1445  255 255 255
-20.7815 53.7842 -57.0664  255 255 255
-20.8001 53.8052 -57.1209  255 255 255
-15.4369 54.8083 -60.5897  255 255 255
-65.7541 46.3402 -28.3327  255 255 255
49.836 42.1864 -22.3961  255 255 255
49.9679 42.2908 -22.703  255 255 255
-9.76767 55.3816 -63.8845  255 255 255
-89.453 45.7365 -23.7956  255 255 255
-89.453 45.7365 -23.7956  255 255 255
-25.2885 52.4584 -53.9677  255 255 255
53.3313 29.2594 18.4313  255 255 255
50.378 65.9206 -100.323  255 255 255
-17.2203 53.8857 -59.8114  255 255 255
-23.2419 52.5122 -54.828  255 255 255
-19.72 53.3117 -57.9355  255 255 255
52.6263 29.5956 17.1873  255 255 255
-75.5623 44.3401 -22.3676  255 255 255
-21.0651 53.2254 -57.6477  255 255 255
45.9934 64.856 -97.675  255 255 255
57.8724 26.5975 26.4274  255 255 255
10.4521 58.4414 -77.2522  255 255 255
-26.4633 51.9542 -54.3575  255 255 255
42.714 63.9716 -96.1303  255 255 255
-77.632 43.4848 -21.4758  255 255 255
-55.8659 46.6994 -35.4091  255 255 255
-23.3028 52.111 -56.7335  255 255 255
-62.5724 45.6139 -31.3211  255 255 255
11.0836 57.2131 -75.4189  255 255 255
53.3855 29.0004 16.7235  255 255 255
57.3282 26.5176 24.759  255 255 255
-74.6899 43.659 -23.5472  255 255 255
-17.6079 52.7806 -60.6309  255 255 255
-17.6073 52.7646 -60.5751  255 255 255
-53.6454 46.8154 -37.4461  255 255 255
45.8654 63.6807 -99.0009  255 255 255
-45.2885 47.9168 -42.485  255 255 255
51.4632 29.6509 13.3199  255 255 255
-64.448 45.056 -31.1408  255 255 255
-58.8262 45.6332 -34.333  255 255 255
-58.5653 45.2585 -33.0211  255 255 255
-76.5749 42.8848 -22.5915  255 255 255
41.8227 62.4041 -96.7694  255 255 255
52.2153 29.0005 14.8573  255 255 255
-33.2087 49.5748 -51.1493  255 255 255
52.9757 28.5919 16.1018  255 255 255
-45.7758 47.2834 -42.357  255 255 255
52.3844 38.6702 -18.021  255 255 255
-65.7005 44.2789 -30.2556  255 255 255
-65.7005 44.2789 -30.2556  255 255 255
-45.3144 47.3828 -43.492  255 255 255
-47.4575 46.9955 -42.244  255 255 255
53.0352 28.4088 15.7505  255 255 255
58.8438 24.8375 27.498  255 255 255
19.8416 57.9962 -84.9564  255 255 255
45.5996 62.0194 -99.1054  255 255 255
-65.6923 44.068 -31.2808  255 255 255
-13.4904 52.0821 -64.2977  255 255 255
49.7734 29.7691 9.70586  255 255 255
59.3454 24.3455 27.8783  255 255 255
47.4717 62.0179 -101.964  255 255 255
53.0035 27.6987 15.8016  255 255 255
19.7677 57.2655 -85.1578  255 255 255
49.0856 29.8396 8.08849  255 255 255
-79.0751 41.2075 -22.5377  255 255 255
-53.0551 45.0386 -39.4548  255 255 255
-53.0551 45.0386 -39.4548  255 255 255
-48.7464 45.8893 -42.873  255 255 255
52.0266 28.0101 13.5683  255 255 255
-21.2824 48.9107 -56.7426  255 255 255
50.5212 28.7046 10.8313  255 255 255
52.7219 27.4118 15.199  255 255 255
-65.9688 42.9663 -31.4655  255 255 255
50.0338 38.6025 -23.9662  255 255 255
50.6382 28.4238 11.3849  255 255 255
-65.58 42.7341 -31.4846  255 255 255
51.4663 37.6185 -21.652  255 255 255
-7.78731 51.6254 -69.3712  255 255 255
50.1236 38.1966 -23.9496  255 255 255
-51.5716 44.5974 -40.9975  255 255 255
-46.4001 45.376 -44.6399  255 255 255
-46.4001 45.376 -44.6399  255 255 255
-52.5993 44.2457 -40.5631  255 255 255
20.5237 55.586 -85.7382  255 255 255
-37.6152 46.4293 -50.4956  255 255 255
-19.9692 47.3887 -55.8777  255 255 255
-42.1341 45.6008 -47.7613  255 255 255
-52.8456 43.7821 -40.5624  255 255 255
27.7182 56.6522 -91.5214  255 255 255
55.3809 25.0368 19.8261  255 255 255
55.3809 25.0368 19.8261  255 255 255
-77.1044 40.4749 -26.2477  255 255 255
-31.2573 46.8746 -55.3404  255 255 255
-62.1881 41.7582 -33.6232  255 255 255
42.2133 58.4679 -100.539  255 255 255
-41.4805 45.1736 -48.7184  255 255 255
-60.5575 42.2443 -35.9115  255 255 255
51.9617 35.7982 -20.0018  255 255 255
-32.0394 46.0904 -55.2722  255 255 255
52.2159 35.6133 -20.9076  255 255 255
-79.4439 39.3351 -24.1728  255 255 255
50.606 36.5036 -24.1182  255 255 255
6.18449 51.6499 -79.531  255 255 255
48.6891 27.9337 6.26835  255 255 255
49.0329 27.9703 6.0813  255 255 255
-40.8218 44.2979 -49.4239  255 255 255
-58.1323 41.6161 -37.7837  255 255 255
-58.1323 41.6161 -37.7837  255 255 255
-100.863 45.3456 -45.3803  255 255 255
-39.5766 44.297 -50.354  255 255 255
-39.5766 44.297 -50.354  255 255 255
-8.34607 48.9369 -70.2829  255 255 255
-57.8394 41.7004 -39.0659  255 255 255
-43.8927 43.5647 -48.1525  255 255 255
-52.3414 42.1633 -43.089  255 255 255
-52.3341 42.1805 -43.1266  255 255 255
-58.8119 41.1318 -38.6233  255 255 255
-58.8119 41.1318 -38.6233  255 255 255
-58.7252 41.029 -38.2906  255 255 255
-44.7655 43.0206 -48.0395  255 255 255
19.6078 52.8565 -88.8082  255 255 255
47.9049 36.9383 -30.3363  255 255 255
56.8021 23.0842 21.3138  255 255 255
-70.9571 39.3394 -31.2216  255 255 255
6.6091 50.4623 -80.7259  255 255 255
-64.6597 40.0849 -35.816  255 255 255
-55.527 40.8792 -40.7768  255 255 255
55.8171 23.2467 19.3033  255 255 255
48.56 36.0761 -29.2734  255 255 255
-48.3822 41.896 -46.2472  255 255 255
54.4677 23.8293 16.5286  255 255 255
54.4677 23.8293 16.5286  255 255 255
-52.5293 41.2373 -43.5674  255 255 255
54.7492 23.7103 16.5863  255 255 255
54.4735 23.595 17.063  255 255 255
-68.8167 38.8843 -32.8722  255 255 255
-41.2332 42.481 -51.1118  255 255 255
-53.1911 40.7431 -43.4139  255 255 255
-53.1927 40.7699 -43.4003  255 255 255
-69.3581 38.3569 -32.5007  255 255 255
-54.1099 40.4125 -42.8634  255 255 255
54.1198 23.4298 15.674  255 255 255
52.3214 24.2479 12.2659  255 255 255
54.7241 23.0043 16.9263  255 255 255
52.6132 33.1825 -22.7655  255 255 255
-66.078 38.5059 -35.379  255 255 255
50.8847 24.7813 9.43039  255 255 255
51.7802 24.2922 11.495  255 255 255
52.3565 24.0143 12.554  255 255 255
-50.39 40.111 -45.2461  255 255 255
-63.3291 38.6464 -37.6973  255 255 255
53.9857 23.0229 15.3824  255 255 255
-49.8302 39.6014 -44.1127  255 255 255
-52.7474 39.4611 -43.2824  255 255 255
-7.82979 45.7932 -73.1949  255 255 255
51.3572 32.7136 -23.5446  255 255 255
-48.4883 40.1444 -47.5455  255 255 255
-39.7866 41.3619 -53.2134  255 255 255
-39.7837 41.2756 -53.0182  255 255 255
-87.4468 36.4536 -26.818  255 255 255
-58.9883 38.6854 -40.6556  255 255 255
-59.5661 38.5727 -40.33  255 255 255
-52.5075 39.5015 -44.7306  255 255 255
-52.5575 39.5904 -45.1603  255 255 255
-78.4155 36.1201 -28.3635  255 255 255
50.8396 23.9927 8.82138  255 255 255
-56.7089 38.6123 -42.5558  255 255 255
-56.7294 38.6262 -42.4988  255 255 255
-56.7294 38.6262 -42.4988  255 255 255
-51.1905 39.144 -45.6093  255 255 255
-49.3918 39.3817 -46.8713  255 255 255
-48.0252 39.6465 -48.0327  255 255 255
50.2212 24.2696 7.30813  255 255 255
-75.0762 36.4679 -31.5763  255 255 255
-72.2743 36.6994 -33.0014  255 255 255
-52.9978 38.7016 -44.2962  255 255 255
-53.1309 38.8716 -45.0078  255 255 255
-68.0454 36.8624 -35.2726  255 255 255
-67.6619 36.9528 -35.8611  255 255 255
-67.662 36.9525 -35.858  255 255 255
54.3807 31.0906 -20.8288  255 255 255
-47.3425 39.343 -49.0679  255 255 255
-48.0876 39.1892 -48.6052  255 255 255
-9.45601 44.4173 -73.8363  255 255 255
-9.48885 44.4738 -74.055  255 255 255
55.0687 21.5676 16.5259  255 255 255
-54.2529 38.1028 -44.7232  255 255 255
-53.6527 38.1165 -45.2226  255 255 255
-31.7067 40.974 -59.7436  255 255 255
-72.6186 35.8037 -33.215  255 255 255
-57.3777 37.4887 -42.7313  255 255 255
-57.3843 37.5013 -42.8207  255 255 255
50.2861 23.5732 7.01831  255 255 255
-49.9491 38.2879 -48.1472  255 255 255
-77.1678 34.87 -29.513  255 255 255
52.7726 30.6097 -22.313  255 255 255
-40.0386 39.6262 -54.7824  255 255 255
-40.0699 39.6052 -54.739  255 255 255
-8.91367 43.8958 -74.877  255 255 255
-8.9282 43.9208 -74.945  255 255 255
-53.5471 37.8611 -45.954  255 255 255
-59.787 36.8772 -41.7776  255 255 255
53.6715 21.565 13.2912  255 255 255
54.3735 21.1275 15.0125  255 255 255
-49.2687 37.7282 -48.3052  255 255 255
-9.00914 43.3326 -75.5224  255 255 255
53.3012 29.8727 -21.6136  255 255 255
50.5952 22.9291 7.1838  255 255 255
54.9515 20.7527 15.9837  255 255 255
53.7152 29.3214 -20.9714  255 255 255
-73.2488 34.5253 -33.1861  255 255 255
-84.319 33.0684 -26.0641  255 255 255
-41.604 38.0427 -53.7413  255 255 255
55.2544 20.1579 16.3605  255 255 255
-42.966 38.3548 -55.0472  255 255 255
54.0663 20.6083 14.2578  255 255 255
54.1124 20.6353 14.1854  255 255 255
-61.3314 35.6505 -41.5743  255 255 255
-58.5498 36.0094 -43.375  255 255 255
54.0465 28.6566 -20.8063  255 255 255
52.7742 20.8673 11.6602  255 255 255
-40.7925 37.372 -56.0176  255 255 255
-13.2194 41.0403 -74.6056  255 255 255
58.6635 17.9759 22.5416  255 255 255
-82.8847 32.4404 -27.8126  255 255 255
54.0832 28.1217 -21.5703  255 255 255
53.2757 20.3189 12.1211  255 255 255
49.571 21.9913 4.62567  255 255 255
49.6076 22.0073 4.52847  255 255 255
53.743 20.0454 13.0219  255 255 255
-54.3402 35.2882 -47.3395  255 255 255
-64.458 33.9895 -40.5042  255 255 255
57.9248 18.0285 20.4917  255 255 255
-66.7266 33.6962 -39.3525  255 255 255
54.6309 27.281 -20.2753  255 255 255
48.724 29.8925 -32.4615  255 255 255
53.824 19.5435 12.9772  255 255 255
-53.7197 34.7516 -47.5663  255 255 255
-52.3087 35.1433 -49.4032  255 255 255
-11.6886 40.1312 -76.3288  255 255 255
-63.1717 33.6873 -41.9956  255 255 255
53.446 27.4108 -22.9861  255 255 255
-64.1989 33.4715 -40.9942  255 255 255
-34.8379 37.0392 -61.4087  255 255 255
-62.8615 33.5518 -42.1841  255 255 255
-55.2398 34.2366 -46.8369  255 255 255
-40.4762 36.0025 -58.1864  255 255 255
-40.4742 36.0037 -58.2154  255 255 255
50.8826 20.3971 6.31361  255 255 255
51.1172 20.3704 6.52683  255 255 255
50.6729 20.3777 5.96872  255 255 255
50.7546 20.4155 5.89292  255 255 255
-56.1569 33.5658 -46.7294  255 255 255
-51.9506 34.1719 -50.0295  255 255 255
-37.5575 35.9905 -60.0557  255 255 255
-29.9599 36.7303 -64.9216  255 255 255
49.2904 20.6651 3.53556  255 255 255
-29.4366 36.4453 -65.9718  255 255 255
52.8759 26.481 -24.8036  255 255 255
-81.6147 30.5945 -31.3516  255 255 255
53.2384 18.6448 10.4462  255 255 255
55.4393 17.6524 14.9495  255 255 255
-81.8251 30.3469 -31.3238  255 255 255
50.8761 19.6475 5.61606  255 255 255
50.6674 19.5453 5.86277  255 255 255
15.5347 37.0791 -74.8607  255 255 255
-77.9302 29.9958 -31.5369  255 255 255
-34.3121 35.3564 -63.346  255 255 255
24.1665 37.2282 -76.3695  255 255 255
50.3724 19.2904 5.29138  255 255 255
59.0629 15.8203 21.7817  255 255 255
17.9108 36.6293 -75.3857  255 255 255
-37.1411 34.4113 -61.4529  255 255 255
-149.786 39.8061 -68.1338  255 255 255
49.4574 19.3529 3.79863  255 255 255
48.6705 20.2866 -0.755293  255 255 255
51.8677 18.9216 5.57896  255 255 255
51.4378 18.7176 6.50462  255 255 255
-84.1088 29.1949 -30.8354  255 255 255
45.5528 28.5638 -41.1027  255 255 255
50.0087 18.9407 4.47275  255 255 255
55.9628 16.9907 13.8972  255 255 255
-36.5034 33.825 -61.5624  255 255 255
51.9107 18.2985 7.16958  255 255 255
-74.6546 29.8478 -37.2594  255 255 255
-57.6323 31.4287 -47.9734  255 255 255
51.4942 18.3703 6.55715  255 255 255
55.3764 16.6622 14.5173  255 255 255
-63.8615 30.6776 -43.9055  255 255 255
-80.4308 28.9536 -33.807  255 255 255
-77.759 28.6709 -33.2683  255 255 255
-66.1265 30.275 -43.2575  255 255 255
-54.2182 31.3891 -51.1471  255 255 255
-54.1096 31.2683 -50.6897  255 255 255
-54.2182 31.3891 -51.1471  255 255 255
-64.0911 30.3496 -44.7701  255 255 255
-77.9216 28.9296 -35.7767  255 255 255
-62.7107 30.3535 -45.6094  255 255 255
55.8036 16.0125 15.0676  255 255 255
58.6986 14.8769 20.8572  255 255 255
-73.3988 29.9453 -42.3933  255 255 255
-73.8157 29.777 -42.6006  255 255 255
17.6648 33.501 -71.5912  255 255 255
51.6696 17.4296 6.60705  255 255 255
-56.127 30.6636 -50.7749  255 255 255
50.8171 17.6123 4.85571  255 255 255
50.8141 17.6188 4.8464  255 255 255
-73.965 29.3854 -42.3524  255 255 255
49.8666 24.9926 -32.3557  255 255 255
-80.4111 27.944 -34.7721  255 255 255
-84.9967 27.3592 -31.3536  255 255 255
-80.0618 27.7867 -34.9856  255 255 255
57.8495 14.5555 18.5599  255 255 255
61.3149 13.1817 25.2952  255 255 255
-77.9462 27.8066 -36.6243  255 255 255
-73.7011 28.8978 -43.1211  255 255 255
-8.63902 32.079 -68.2222  255 255 255
54.166 22.8102 -23.7348  255 255 255
50.7164 17.102 4.03106  255 255 255
-78.6692 27.2743 -35.9381  255 255 255
-78.7311 27.3245 -36.1757  255 255 255
-0.765346 30.8622 -67.3379  255 255 255
47.692 17.8652 -2.17196  255 255 255
-41.1004 30.574 -62.4457  255 255 255
-60.9598 28.137 -47.0681  255 255 255
-43.2492 29.915 -60.8155  255 255 255
-43.2307 29.9061 -60.8219  255 255 255
38.9715 30.313 -69.4095  255 255 255
-66.6836 27.3639 -44.0605  255 255 255
50.8609 16.1629 4.0265  255 255 255
41.3885 29.8453 -68.5535  255 255 255
-85.0237 25.7908 -33.2923  255 255 255
47.7657 24.0382 -38.5277  255 255 255
-43.271 29.5586 -61.4631  255 255 255
49.8235 16.293 0.820079  255 255 255
-82.0861 25.5826 -35.7064  255 255 255
-44.8389 29.1113 -62.182  255 255 255
47.6673 16.7093 -2.80467  255 255 255
49.8264 15.8165 1.94758  255 255 255
49.8367 15.8231 1.92953  255 255 255
58.9826 12.5161 19.9619  255 255 255
-73.4559 26.9697 -46.8118  255 255 255
49.0099 15.8777 -0.0053544  255 255 255
53.9348 14.1621 9.65559  255 255 255
52.6122 14.4695 7.04998  255 255 255
-79.6184 25.1475 -38.1499  255 255 255
55.568 13.2832 12.1893  255 255 255
-60.5215 29.9077 -72.0526  255 255 255
-53.461 23.9143 -40.964  255 255 255
43.329 27.2021 -65.2087  255 255 255
-33.2149 27.1106 -59.9506  255 255 255
47.8084 15.9872 -3.7109  255 255 255
53.4026 13.8307 8.01949  255 255 255
53.3279 13.8059 8.11129  255 255 255
58.7738 11.7846 18.546  255 255 255
0.979898 26.5181 -62.4505  255 255 255
-2.1674 26.5298 -62.31  255 255 255
-8.299 26.4344 -61.8121  255 255 255
49.0588 21.4959 -37.0448  255 255 255
53.6836 13.3473 8.5537  255 255 255
-80.8655 23.8229 -36.8776  255 255 255
-3.10989 26.1178 -61.664  255 255 255
52.8961 13.8211 5.28399  255 255 255
52.6114 13.6916 5.88963  255 255 255
-83.6114 23.5621 -35.5086  255 255 255
-0.246497 25.5347 -61.3011  255 255 255
-90.9725 24.302 -42.5586  255 255 255
-80.2844 23.2496 -39.2989  255 255 255
-79.8056 22.9814 -38.0145  255 255 255
54.5621 12.2191 8.68892  255 255 255
-42.6126 24.3898 -57.5394  255 255 255
51.8666 12.6923 4.27522  255 255 255
51.8666 12.6923 4.27522  255 255 255
34.8781 23.7025 -61.6183  255 255 255
53.7858 12.0569 7.57839  255 255 255
-65.8626 23.4342 -49.3026  255 255 255
-83.2205 21.972 -37.5238  255 255 255
-83.0352 21.8752 -37.0485  255 255 255
35.8126 23.4272 -60.9461  255 255 255
52.6158 12.2182 5.64284  255 255 255
-14.3594 23.0887 -57.2543  255 255 255
-40.0728 23.3386 -56.1202  255 255 255
50.5227 12.7153 1.35516  255 255 255
29.4106 22.7047 -60.0945  255 255 255
-79.3708 21.4695 -41.9168  255 255 255
51.2991 11.8869 2.2808  255 255 255
53.8517 11.1394 6.35147  255 255 255
15.186 21.5014 -57.8388  255 255 255
50.488 11.9991 0.491339  255 255 255
52.5938 11.2584 4.86771  255 255 255
-20.7258 21.5372 -55.4729  255 255 255
55.1598 10.3655 10.0498  255 255 255
-114.016 23.7088 -52.5059  255 255 255
-65.3063 21.7658 -51.8813  255 255 255
-40.4325 21.1297 -52.567  255 255 255
31.4601 20.8287 -57.8866  255 255 255
49.2399 12.0516 -2.46478  255 255 255
50.5381 11.604 0.431229  255 255 255
51.2983 11.3448 1.81962  255 255 255
-65.1326 21.5741 -52.6997  255 255 255
-17.0509 20.5564 -54.4262  255 255 255
63.1988 7.22976 26.6116  255 255 255
49.5271 11.5464 -1.7173  255 255 255
49.9076 11.4814 -1.20595  255 255 255
-42.1409 20.5045 -52.7889  255 255 255
-40.2607 20.1822 -51.6998  255 255 255
63.0264 7.17659 25.6352  255 255 255
62.7348 7.16923 24.9029  255 255 255
-85.5934 19.3224 -37.9544  255 255 255
58.6814 8.45882 16.297  255 255 255
58.6168 8.41154 16.3209  255 255 255
62.7529 7.14788 24.5351  255 255 255
50.5092 10.8746 -0.260505  255 255 255
63.7494 6.64591 27.0169  255 255 255
49.2926 11.1788 -3.03328  255 255 255
52.4917 10.163 3.64194  255 255 255
52.3695 10.1136 3.22878  255 255 255
46.8907 11.6722 -7.94918  255 255 255
53.1987 9.5995 5.0297  255 255 255
-18.6092 18.5858 -52.094  255 255 255
52.4088 9.71442 3.3456  255 255 255
-6.47955 18.2286 -52.3798  255 255 255
53.5955 9.24627 5.49832  255 255 255
63.0573 6.17294 25.3666  255 255 255
-14.919 17.8962 -51.5229  255 255 255
52.4852 9.41595 2.64324  255 255 255
63.5895 5.94606 26.5241  255 255 255
63.6965 5.96039 26.3699  255 255 255
-111.443 20.4142 -50.3697  255 255 255
-111.443 20.4142 -50.3697  255 255 255
-78.7026 18.3438 -45.1473  255 255 255
-42.5917 17.7516 -49.106  255 255 255
-20.9788 17.3803 -50.5652  255 255 255
47.2576 10.5631 -9.07057  255 255 255
54.1114 8.34167 6.09394  255 255 255
54.0749 8.33678 6.11491  255 255 255
50.9253 9.15852 -0.345641  255 255 255
52.8329 13.6445 -32.6971  255 255 255
52.3944 8.65542 2.33322  255 255 255
-13.8231 16.3676 -50.1872  255 255 255
52.2955 8.38049 1.99263  255 255 255
52.2683 8.3783 2.01999  255 255 255
52.2996 8.38976 1.99603  255 255 255
-12.9822 15.7527 -49.2505  255 255 255
-79.5635 16.4961 -42.8629  255 255 255
-28.2065 15.621 -48.1883  255 255 255
-13.9402 15.3707 -48.8528  255 255 255
-13.9258 15.3451 -48.8065  255 255 255
53.9228 7.48388 5.16446  255 255 255
61.3571 5.63214 18.6872  255 255 255
58.3831 6.10453 14.3926  255 255 255
51.7665 7.80851 0.695501  255 255 255
56.4142 6.59639 9.8576  255 255 255
52.1893 7.60308 1.44424  255 255 255
-16.9744 14.4803 -47.2379  255 255 255
57.72 5.86487 12.6987  255 255 255
50.9627 7.29352 -1.62846  255 255 255
51.1441 7.32382 -1.99582  255 255 255
56.8546 5.66342 10.6582  255 255 255
-8.1679 13.3346 -46.8625  255 255 255
-45.5164 13.7157 -45.6665  255 255 255
-9.15789 13.0841 -46.5335  255 255 255
55.4255 5.74147 7.5942  255 255 255
-41.0067 13.2268 -45.2593  255 255 255
50.1339 6.91531 -3.72063  255 255 255
55.7257 5.469 7.40632  255 255 255
55.7119 5.46145 7.43874  255 255 255
53.6995 5.80478 3.41672  255 255 255
51.7499 6.3263 -0.720317  255 255 255
-34.6285 12.6109 -44.3561  255 255 255
52.5547 5.93025 1.03681  255 255 255
-15.3379 12.0073 -45.0061  255 255 255
-10.7027 11.8763 -45.1451  255 255 255
-73.5196 13.103 -43.1537  255 255 255
-15.2074 11.5619 -44.193  255 255 255
47.8845 6.70732 -8.59694  255 255 255
-55.2417 12.2032 -42.6963  255 255 255
-18.552 11.5665 -44.4705  255 255 255
-18.0622 11.5426 -44.2497  255 255 255
46.6259 6.84969 -11.8912  255 255 255
51.251 5.56607 -3.02285  255 255 255
50.4748 5.3935 -3.98641  255 255 255
52.2022 5.13064 -1.43268  255 255 255
-20.8626 10.5229 -42.7926  255 255 255
51.6818 4.75976 -1.43481  255 255 255
63.7493 1.95759 22.4331  255 255 255
52.4835 4.21393 0.191878  255 255 255
57.4752 2.98742 10.447  255 255 255
-26.2226 9.33457 -41.6198  255 255 255
-32.0745 9.36933 -41.462  255 255 255
51.6117 4.10398 -2.01518  255 255 255
5.9221 1.46454 23.4855  255 255 255
63.1392 1.31672 21.9905  255 255 255
-46.8359 9.19509 -40.0442  255 255 255
57.1247 2.58331 9.96933  255 255 255
-3.4403 1.61817 21.893  255 255 255
59.0914 2.1217 11.7387  255 255 255
52.8174 3.02825 -0.247721  255 255 255
57.5218 1.81961 9.50977  255 255 255
-31.0295 7.467 -38.8308  255 255 255
57.3911 1.71377 9.17296  255 255 255
-121.043 9.37634 -35.3735  255 255 255
52.8639 2.54595 -0.254375  255 255 255
58.8226 1.34142 12.1856  255 255 255
56.5413 1.72641 7.25913  255 255 255
51.9462 2.57604 -2.8111  255 255 255
51.8966 2.56244 -2.68153  255 255 255
58.0533 1.27027 10.4646  255 255 255
-119.994 8.6973 -33.5135  255 255 255
63.091 0.0886553 20.2296  255 255 255
58.1262 0.945134 10.4252  255 255 255
48.9344 2.65523 -9.06146  255 255 255
-75.1096 7.20332 -35.9125  255 255 255
50.2851 2.27431 -6.4048  255 255 255
54.0497 1.60626 1.25404  255 255 255
64.2265 -0.438187 21.8198  255 255 255
54.1969 1.39432 2.05775  255 255 255
56.7048 0.953981 7.06419  255 255 255
54.5144 1.15341 2.81024  255 255 255
53.6454 1.13652 0.876124  255 255 255
58.6863 0.171665 11.4854  255 255 255
54.8576 0.852296 2.99164  255 255 255
54.6121 0.883374 2.62319  255 255 255
54.5949 0.879369 2.64019  255 255 255
57.8357 0.141511 9.19271  255 255 255
58.4821 0.0450278 10.6646  255 255 255
63.651 -1.02512 20.9668  255 255 255
65.1796 -1.38456 25.2373  255 255 255
51.4735 1.1929 -4.57005  255 255 255
59.1394 -0.352702 13.5258  255 255 255
54.7719 0.46687 2.53436  255 255 255
55.1212 0.385593 3.6958  255 255 255
56.4303 0.0482786 6.43652  255 255 255
54.8764 0.459863 1.16741  255 255 255
58.0333 -0.268601 9.44201  255 255 255
59.2525 -0.481778 11.916  255 255 255
64.6396 -1.57411 23.9271  255 255 255
-26.7093 4.18674 -35.2824  255 255 255
-26.7061 4.15535 -34.9951  255 255 255
55.5604 -0.037309 4.00848  255 255 255
7.06456 -1.56721 25.5163  255 255 255
59.6137 -0.837313 12.8475  255 255 255
0.403993 -1.59885 26.8502  255 255 255
58.1876 -0.624883 9.4289  255 255 255
51.0578 0.657165 -6.13653  255 255 255
54.3 0.102217 0.927816  255 255 255
64.4053 -1.81647 22.9858  255 255 255
0.00983873 -1.711 27.2877  255 255 255
62.8384 -1.61228 19.7367  255 255 255
62.8339 -1.60609 19.7226  255 255 255
47.3422 1.02873 -13.1222  255 255 255
-70.0547 4.29066 -33.0396  255 255 255
64.1427 -2.11776 21.9655  255 255 255
-70.4684 4.12584 -33.4473  255 255 255
55.9457 -0.859104 4.53623  255 255 255
64.9009 -2.45257 23.9349  255 255 255
-15.3451 -1.66378 22.2352  255 255 255
-12.5488 -1.95985 25.8102  255 255 255
57.4459 -1.19086 7.41139  255 255 255
48.2228 0.203209 -12.6057  255 255 255
62.0049 -2.19931 18.0853  255 255 255
57.5793 -1.48633 7.47128  255 255 255
57.5918 -1.49153 7.45067  255 255 255
57.6985 -1.55572 7.8091  255 255 255
-10.0253 -2.4892 28.1543  255 255 255
61.9278 -2.41894 17.9708  255 255 255
48.1981 -0.0728801 -12.9081  255 255 255
58.5134 -1.85037 9.44103  255 255 255
-70.141 2.98241 -30.9395  255 255 255
60.7345 -2.26548 14.3305  255 255 255
58.2806 -1.8952 8.6475  255 255 255
59.2351 -2.05598 10.966  255 255 255
59.4573 -2.02773 10.5348  255 255 255
60.8652 -2.52688 15.8792  255 255 255
-12.0835 -2.72966 26.9568  255 255 255
58.0562 -2.02245 7.23161  255 255 255
58.0562 -2.02245 7.23161  255 255 255
61.0049 -2.5307 14.6536  255 255 255
64.9711 -3.25926 23.6942  255 255 255
64.9711 -3.25926 23.6942  255 255 255
-67.8815 2.64133 -31.5266  255 255 255
-16.3511 -2.37671 21.7783  255 255 255
-16.3456 -2.38649 21.8327  255 255 255
57.1417 -1.95118 5.76395  255 255 255
63.7745 -2.99175 19.6148  255 255 255
59.6809 -2.41454 11.7891  255 255 255
57.9516 -2.18234 7.98907  255 255 255
-74.8262 2.47673 -30.2447  255 255 255
62.353 -3.09455 17.8506  255 255 255
-40.7649 1.60345 -31.2817  255 255 255
-11.0874 -3.29276 28.163  255 255 255
-11.0874 -3.29276 28.163  255 255 255
62.2421 -3.1465 16.647  255 255 255
64.7753 -3.69897 22.5031  255 255 255
53.8187 -2.05581 -1.0379  255 255 255
61.2737 -3.18915 14.8325  255 255 255
57.625 -2.7053 6.75955  255 255 255
50.1954 -1.6967 -9.33175  255 255 255
54.9401 -2.44683 1.33551  255 255 255
63.3686 -3.7303 18.921  255 255 255
63.6764 -3.84084 19.9075  255 255 255
63.6708 -3.8271 19.8734  255 255 255
54.9844 -2.61112 0.79482  255 255 255
54.9844 -2.61112 0.79482  255 255 255
55.5225 -2.71433 2.33617  255 255 255
59.4928 -3.37868 10.834  255 255 255
54.7591 -2.72015 0.542035  255 255 255
8.63587 -4.30212 29.3965  255 255 255
57.2253 -3.21806 5.3797  255 255 255
63.341 -4.13293 19.007  255 255 255
61.6938 -3.92365 15.1865  255 255 255
-19.6417 -2.97104 12.7473  255 255 255
58.0976 -3.43582 7.55372  255 255 255
65.5556 -4.75053 24.1221  255 255 255
58.618 -3.81985 8.66338  255 255 255
54.8006 -3.27655 -0.103737  255 255 255
61.8798 -4.26884 15.8917  255 255 255
59.9337 -4.05563 11.3166  255 255 255
61.5227 -4.23735 14.5946  255 255 255
61.5227 -4.23735 14.5946  255 255 255
64.2143 -4.70292 20.7937  255 255 255
-45.2585 -0.58898 -29.0116  255 255 255
58.3676 -4.1266 8.06187  255 255 255
63.0086 -4.75219 17.5163  255 255 255
-23.4617 -3.31715 8.83993  255 255 255
-23.4641 -3.31362 8.86428  255 255 255
55.9463 -3.8584 2.31372  255 255 255
61.5461 -4.67739 14.7059  255 255 255
61.5461 -4.67739 14.7059  255 255 255
54.9892 -3.86307 0.0997151  255 255 255
54.548 -3.86214 -1.27769  255 255 255
59.5371 -4.47887 10.0339  255 255 255
63.4864 -5.04478 19.0066  255 255 255
61.3476 -4.82726 14.1413  255 255 255
59.2639 -4.52877 9.34132  255 255 255
-48.4969 -1.33067 -27.6439  255 255 255
-8.65966 -5.28145 30.8836  255 255 255
-8.65966 -5.28145 30.8836  255 255 255
54.4809 -4.26727 -1.25424  255 255 255
-23.7847 -3.97923 9.61549  255 255 255
64.7117 -5.58697 21.2613  255 255 255
55.0917 -4.75952 -0.249357  255 255 255
65.8618 -6.04158 23.9064  255 255 255
-17.3399 -5.201 24.0234  255 255 255
59.9625 -5.36808 10.0593  255 255 255
59.661 -5.37649 9.46187  255 255 255
61.295 -5.59581 13.2206  255 255 255
64.3586 -6.13777 20.2976  255 255 255
42.8271 -3.59462 -31.6043  255 255 255
60.1182 -5.66143 10.5522  255 255 255
55.1921 -5.19417 -0.343529  255 255 255
61.3935 -5.9454 13.2869  255 255 255
62.5734 -6.22199 15.3629  255 255 255
64.9747 -6.57315 21.521  255 255 255
49.0504 -4.81249 -13.5384  255 255 255
55.5631 -5.52251 0.167629  255 255 255
55.5496 -5.52333 0.195954  255 255 255
-10.908 -6.27501 30.6281  255 255 255
-10.9091 -6.29075 30.6414  255 255 255
-14.451 -6.13155 28.0546  255 255 255
52.4671 -5.38758 -6.67156  255 255 255
60.2005 -6.18655 10.451  255 255 255
60.1938 -6.18811 10.4721  255 255 255
60.3361 -6.32077 9.26848  255 255 255
-6.8245 -6.73197 32.6911  255 255 255
56.7113 -6.03685 2.76745  255 255 255
48.8648 -5.31478 -15.5666  255 255 255
-70.6547 -3.07505 -24.7693  255 255 255
-8.1113 -6.7235 32.3122  255 255 255
52.8729 -5.76772 -6.47934  255 255 255
61.0804 -6.74311 11.902  255 255 255
6.35658 -7.10961 32.0751  255 255 255
56.8486 -6.36774 2.74449  255 255 255
64.0438 -7.11961 18.8319  255 255 255
-24.1594 -5.89272 11.7641  255 255 255
-7.07523 -7.01907 32.9201  255 255 255
-6.56911 -7.10088 33.0327  255 255 255
58.9111 -6.79711 7.15526  255 255 255
60.6001 -6.95921 10.281  255 255 255
60.3976 -6.95442 10.6452  255 255 255
-7.00101 -7.25484 33.0858  255 255 255
60.3261 -7.06166 10.1986  255 255 255
60.3261 -7.06166 10.1986  255 255 255
60.9266 -7.24757 11.7874  255 255 255
-1.69166 -7.58204 33.7989  255 255 255
-16.3355 -7.1151 26.934  255 255 255
-8.30964 -7.47119 32.6835  255 255 255
63.6661 -7.71496 17.5366  255 255 255
-20.9505 -6.74822 17.3595  255 255 255
53.9497 -6.81736 -4.15819  255 255 255
62.2481 -7.70696 14.1651  255 255 255
-8.70613 -7.59979 32.4899  255 255 255
61.0987 -7.67421 11.8696  255 255 255
61.0545 -7.7046 11.9341  255 255 255
47.5123 -6.5551 -18.9874  255 255 255
61.8724 -7.85429 12.9414  255 255 255
5.67942 -8.02833 32.9206  255 255 255
-59.939 -5.03424 -23.4593  255 255 255
-59.939 -5.03424 -23.4593  255 255 255
64.934 -8.2855 20.0948  255 255 255
-42.3585 -5.4412 -23.4921  255 255 255
52.3366 -7.29558 -8.47437  255 255 255
58.3275 -7.76459 4.95686  255 255 255
61.2594 -8.17869 12.0217  255 255 255
61.5704 -8.17974 12.3226  255 255 255
63.5798 -8.43036 16.8202  255 255 255
47.3672 -7.22462 -19.8554  255 255 255
-0.999017 -8.39479 34.5462  255 255 255
47.0671 -7.3322 -20.0953  255 255 255
57.1816 -8.07933 2.79321  255 255 255
-46.9881 -5.98138 -22.2772  255 255 255
57.607 -8.18715 3.13247  255 255 255
-43.2598 -6.08741 -21.9906  255 255 255
-43.2598 -6.08741 -21.9906  255 255 255
66.0131 -8.98017 22.5315  255 255 255
58.6419 -8.45473 5.33847  255 255 255
66.3749 -9.05234 22.9607  255 255 255
-1.93987 -8.69321 34.552  255 255 255
56.7022 -8.48584 0.688553  255 255 255
5.03862 -8.83783 33.5404  255 255 255
58.5204 -8.68728 5.14718  255 255 255
65.5116 -9.2233 21.0615  255 255 255
-68.7974 -6.20621 -20.7807  255 255 255
-3.73622 -8.93283 34.5671  255 255 255
57.3246 -8.89164 2.14952  255 255 255
48.547 -8.33427 -17.6522  255 255 255
49.4471 -8.52707 -14.9948  255 255 255
62.6954 -9.32144 13.1144  255 255 255
62.4151 -9.34611 13.665  255 255 255
58.5272 -9.10065 3.86631  255 255 255
58.5158 -9.09986 3.88954  255 255 255
45.8978 -8.40256 -24.3205  255 255 255
-26.0409 -8.34978 14.4757  255 255 255
63.0633 -9.56714 13.1172  255 255 255
56.7149 -9.3135 0.381935  255 255 255
56.7208 -9.30285 0.357707  255 255 255
56.731 -9.30485 0.359766  255 255 255
59.4541 -9.49231 6.8024  255 255 255
-5.46361 -9.46546 34.3509  255 255 255
57.76 -9.55376 2.51784  255 255 255
58.57 -9.64656 4.43032  255 255 255
58.5205 -9.66555 4.50404  255 255 255
58.5519 -9.6468 4.47202  255 255 255
-41.6611 -7.83164 -20.6047  255 255 255
62.8707 -10.1142 14.5944  255 255 255
59.2415 -9.94337 5.45619  255 255 255
63.4967 -10.1582 15.7376  255 255 255
63.4967 -10.1582 15.7376  255 255 255
63.0463 -10.2114 15.2691  255 255 255
59.9217 -10.19 7.13911  255 255 255
63.4849 -10.6015 15.3692  255 255 255
59.7685 -10.4196 3.77793  255 255 255
59.4436 -10.4888 4.54303  255 255 255
57.7261 -10.4827 1.59607  255 255 255
57.6761 -10.4887 1.68114  255 255 255
59.9277 -10.6434 7.22714  255 255 255
-17.3038 -9.99418 27.1196  255 255 255
-6.85564 -10.2399 34.3676  255 255 255
60.2267 -10.6888 7.31605  255 255 255
60.1879 -10.6877 7.38459  255 255 255
63.4921 -10.8572 15.2989  255 255 255
48.1474 -10.3019 -20.4168  255 255 255
-68.7379 -8.64336 -18.449  255 255 255
-68.7457 -8.64761 -18.473  255 255 255
-5.16294 -10.3868 34.8494  255 255 255
-5.16111 -10.3869 34.8313  255 255 255
46.9404 -10.3142 -23.6597  255 255 255
59.2377 -10.8243 5.31757  255 255 255
59.2552 -10.8275 5.29283  255 255 255
-18.2988 -10.2015 25.994  255 255 255
48.8535 -10.5835 -17.9366  255 255 255
56.4094 -10.9103 -0.777544  255 255 255
60.4488 -10.9921 7.64726  255 255 255
-15.3707 -10.4759 29.4412  255 255 255
56.5522 -11.0578 -1.54158  255 255 255
-2.77047 -10.7882 35.3403  255 255 255
52.2913 -11.0369 -10.9487  255 255 255
-3.35154 -10.8139 35.3149  255 255 255
63.9979 -11.4843 15.9604  255 255 255
63.9979 -11.4843 15.9604  255 255 255
48.1782 -10.9742 -20.1031  255 255 255
56.4332 -11.1551 -2.20129  255 255 255
61.898 -11.4185 10.8084  255 255 255
63.8995 -11.548 15.4391  255 255 255
60.9999 -11.452 8.58476  255 255 255
66.6934 -11.6609 22.1311  255 255 255
57.5227 -11.3976 0.51711  255 255 255
-11.5061 -10.8367 32.4986  255 255 255
59.425 -11.5014 5.08954  255 255 255
59.3707 -11.5075 5.17697  255 255 255
59.8547 -11.5309 6.09505  255 255 255
-2.20388 -11.0119 35.4109  255 255 255
56.3099 -11.5506 -2.36017  255 255 255
61.4188 -11.6873 9.62532  255 255 255
61.8519 -11.7434 10.9481  255 255 255
61.9698 -11.702 10.8296  255 255 255
60.3432 -11.7007 6.97977  255 255 255
56.4147 -11.6088 -1.98937  255 255 255
57.5624 -11.6883 0.659679  255 255 255
61.4777 -11.9216 10.041  255 255 255
-19.0132 -10.9594 25.0233  255 255 255
47.6823 -11.5888 -21.5242  255 255 255
-10.3488 -11.2158 33.2518  255 255 255
1.69016 -11.4479 35.3257  255 255 255
1.69016 -11.4479 35.3257  255 255 255
48.5358 -11.8906 -20.7226  255 255 255
-56.063 -10.4329 -16.8936  255 255 255
-56.063 -10.4329 -16.8936  255 255 255
60.6954 -12.2721 8.07268  255 255 255
60.7222 -12.2603 8.00491  255 255 255
61.3425 -12.2428 7.61099  255 255 255
59.4566 -12.3305 4.26171  255 255 255
-50.0809 -10.7761 -16.6064  255 255 255
-21.5868 -11.3212 22.5749  255 255 255
-16.3627 -11.4339 28.7437  255 255 255
59.1746 -12.4506 4.19656  255 255 255
59.1471 -12.4197 4.18622  255 255 255
64.897 -12.4688 17.5091  255 255 255
-5.42487 -11.6266 35.1875  255 255 255
57.2341 -12.6444 -1.10408  255 255 255
-3.97472 -11.9529 35.4805  255 255 255
59.0983 -12.7531 3.13351  255 255 255
59.4729 -12.7523 4.07714  255 255 255
64.5217 -12.84 16.06  255 255 255
56.4449 -12.7866 -2.61195  255 255 255
