ply
format ascii 1.0
element vertex 1259
property float x
property float y
property float z
property uchar red
property uchar green
property uchar blue
end_header
66.8441 19.3982 23.5882  255 255 255
71.099 18.0541 33.8264  255 255 255
68.1119 19.1388 23.347  255 255 255
58.3349 27.1011 -46.3396  255 255 255
58.3163 27.1901 -46.3409  255 255 255
-87.5264 27.6722 -52.4193  255 255 255
-44.4824 29.9135 -76.459  255 255 255
-86.5374 27.3797 -52.5741  255 255 255
67.4879 18.6015 24.4715  255 255 255
67.2197 18.515 24.1342  255 255 255
-80.963 27.9474 -62.3374  255 255 255
67.7606 18.2202 24.3788  255 255 255
36.7652 29.1573 -75.7507  255 255 255
-71.9575 27.3914 -62.4587  255 255 255
60.8765 25.3164 -40.2775  255 255 255
-92.2199 26.1138 -50.765  255 255 255
61.6521 19.345 10.0033  255 255 255
-88.4139 25.9891 -54.1957  255 255 255
56.962 20.0682 -1.37453  255 255 255
57.554 19.9973 -1.37545  255 255 255
57.5717 19.9488 -1.32173  255 255 255
62.0497 18.6865 10.3248  255 255 255
61.9406 18.6418 10.5742  255 255 255
57.3643 19.5773 -1.60828  255 255 255
67.3104 17.0728 22.8434  255 255 255
4.65885 25.6278 -69.8025  255 255 255
62.8898 17.7517 11.7485  255 255 255
-37.9787 25.3804 -69.8907  255 255 255
69.2689 15.9127 27.0993  255 255 255
-35.3678 24.8663 -68.537  255 255 255
67.1821 16.2106 22.3754  255 255 255
70.8306 15.0391 32.0176  255 255 255
71.0578 14.9863 32.5786  255 255 255
62.2468 16.8902 9.2443  255 255 255
71.1155 14.7176 32.4279  255 255 255
59.8372 17.3205 4.10242  255 255 255
-15.1937 23.2318 -66.9069  255 255 255
67.1467 15.4972 21.7893  255 255 255
38.9807 23.1469 -66.3379  255 255 255
-92.888 21.9785 -52.5803  255 255 255
67.4709 14.9924 21.0207  255 255 255
-11.5912 22.4567 -65.6784  255 255 255
-89.9546 21.7393 -53.3737  255 255 255
-17.5058 22.2784 -65.4917  255 255 255
-1.84611 22.1541 -63.8424  255 255 255
58.8716 16.3823 2.69517  255 255 255
-44.5362 21.9366 -64.6746  255 255 255
64.0675 19.7119 -35.2136  255 255 255
60.6748 15.8939 4.73672  255 255 255
44.3837 21.4825 -64.5378  255 255 255
60.687 15.42 4.93484  255 255 255
-15.5962 20.3432 -63.1662  255 255 255
72.226 12.7452 33.4027  255 255 255
-74.5883 20.6246 -65.7432  255 255 255
-20.1717 19.0065 -60.8407  255 255 255
-16.4976 19.0861 -61.9454  255 255 255
-10.0618 19.0353 -61.462  255 255 255
-12.0363 18.948 -61.6568  255 255 255
69.2613 12.6464 25.2819  255 255 255
63.2272 17.3984 -36.4451  255 255 255
62.5719 13.7762 8.25701  255 255 255
65.8589 13.1768 16.7824  255 255 255
65.9237 13.1821 16.7437  255 255 255
65.1218 13.0379 14.6822  255 255 255
65.125 13.0324 14.684  255 255 255
-64.0599 18.6353 -62.8927  255 255 255
-85.3906 18.8043 -62.2578  255 255 255
57.0735 13.7335 -5.71  255 255 255
-10.5475 16.4358 -58.3121  255 255 255
59.6614 12.7789 0.0570809  255 255 255
60.68 12.6679 2.11447  255 255 255
-13.7372 16.2485 -58.4367  255 255 255
-60.4658 15.5096 -58.5543  255 255 255
61.0911 11.6849 1.68504  255 255 255
-16.2957 14.8851 -56.1501  255 255 255
64.1298 10.6797 9.97997  255 255 255
-34.166 13.9843 -56.6117  255 255 255
71.997 9.09723 29.9099  255 255 255
66.7594 9.63895 17.1026  255 255 255
-12.1979 13.0683 -54.1697  255 255 255
67.0748 9.18944 17.0903  255 255 255
-13.2818 12.3833 -52.6467  255 255 255
-5.85961 7.69799 23.3915  255 255 255
-2.4 7.40133 22.2105  255 255 255
-77.6183 11.9041 -54.5669  255 255 255
60.9563 8.87687 0.7609  255 255 255
61.3749 8.5765 1.60392  255 255 255
59.4233 8.68022 -4.13148  255 255 255
-11.6674 6.65798 21.3822  255 255 255
60.1887 8.0948 -1.72795  255 255 255
64.988 7.40661 9.98675  255 255 255
65.0389 7.40971 9.8772  255 255 255
60.4232 7.65481 -1.79546  255 255 255
67.7945 6.93974 16.0545  255 255 255
-57.8484 9.41664 -50.1432  255 255 255
71.4626 6.36064 27.0214  255 255 255
62.3739 7.19141 3.39078  255 255 255
56.8491 7.67223 -11.4715  255 255 255
61.9206 7.20262 2.1627  255 255 255
-24.0524 8.55392 -49.7786  255 255 255
66.4545 6.22536 13.2129  255 255 255
66.5429 5.83677 12.8384  255 255 255
65.931 5.74173 11.1763  255 255 255
73.3215 5.0571 30.8683  255 255 255
66.2907 5.68332 11.3863  255 255 255
66.0939 5.64715 11.7249  255 255 255
67.0752 5.54678 14.5151  255 255 255
66.6227 5.34141 12.9472  255 255 255
66.6227 5.34141 12.9472  255 255 255
69.739 5.09614 18.6707  255 255 255
69.747 5.0722 18.684  255 255 255
71.5248 4.85076 25.7504  255 255 255
71.5248 4.85076 25.7504  255 255 255
73.1179 4.65579 30.1202  255 255 255
71.816 4.50546 25.0493  255 255 255
71.3404 4.48592 25.7258  255 255 255
-19.2499 4.65246 -0.153647  255 255 255
63.2529 4.67157 3.71843  255 255 255
66.5232 4.3308 12.0797  255 255 255
71.322 3.96723 25.3035  255 255 255
-40.9511 5.21412 -44.202  255 255 255
71.8647 3.76394 26.3908  255 255 255
64.5375 4.12096 7.76938  255 255 255
-20.4397 3.75165 0.897218  255 255 255
71.3492 3.65048 25.0384  255 255 255
64.5694 3.96921 6.88081  255 255 255
64.5694 3.96921 6.88081  255 255 255
-0.519532 2.89172 29.2327  255 255 255
68.5158 3.74063 17.1093  255 255 255
67.4958 3.69507 14.1933  255 255 255
72.3011 3.40786 26.8652  255 255 255
70.6783 3.44744 23.4191  255 255 255
70.6394 3.41344 22.6707  255 255 255
71.58 3.27145 25.0873  255 255 255
71.5808 3.28776 25.0718  255 255 255
68.8194 3.36918 17.5711  255 255 255
-116.326 5.26351 -45.8474  255 255 255
68.1324 3.21413 15.4837  255 255 255
68.1324 3.21413 15.4837  255 255 255
56.1137 3.68233 -16.9137  255 255 255
71.7025 2.84741 25.257  255 255 255
69.2471 2.87141 18.3009  255 255 255
-22.0625 2.73829 2.45544  255 255 255
65.1455 2.9346 7.44712  255 255 255
71.3008 2.58085 24.2297  255 255 255
72.1587 2.35961 24.6458  255 255 255
61.2487 2.58735 -2.97454  255 255 255
71.3359 2.15388 23.9259  255 255 255
68.5773 2.22328 15.6374  255 255 255
68.4312 2.15603 15.8497  255 255 255
70.3906 1.88206 16.1096  255 255 255
68.0356 1.95286 14.2689  255 255 255
68.0901 1.94667 14.2302  255 255 255
-47.0033 2.26808 -41.2478  255 255 255
70.3375 1.74089 20.2598  255 255 255
70.9805 1.63316 23.2754  255 255 255
68.7862 1.56911 15.8871  255 255 255
-25.2717 1.30749 4.16067  255 255 255
71.0433 1.39286 22.2269  255 255 255
63.292 1.39682 1.25137  255 255 255
70.809 1.15799 21.0118  255 255 255
70.7009 1.13098 21.1548  255 255 255
70.7985 1.05593 22.4674  255 255 255
69.5807 1.02357 17.5226  255 255 255
69.5766 1.02267 17.5294  255 255 255
72.034 0.960314 24.6575  255 255 255
72.034 0.960313 24.6575  255 255 255
-77.342 1.29685 -38.0186  255 255 255
-25.0576 0.496588 5.19817  255 255 255
63.536 0.711619 1.62708  255 255 255
52.215 0.693752 -37.8717  255 255 255
63.8075 0.532368 2.06197  255 255 255
74.1348 0.376649 30.1299  255 255 255
69.1978 0.270185 16.1579  255 255 255
-50.2492 0.316739 -38.2601  255 255 255
63.7346 0.21688 1.70291  255 255 255
-13.2513 -0.213482 30.6336  255 255 255
60.7137 0.108055 -6.78934  255 255 255
71.9345 0.0358033 24.0807  255 255 255
71.3709 -0.143048 22.2619  255 255 255
64.0976 -0.434028 2.0399  255 255 255
72.1072 -0.453696 23.8235  255 255 255
72.0821 -0.438741 23.8456  255 255 255
-7.37348 -0.861918 34.3435  255 255 255
74.1998 -0.539096 28.6071  255 255 255
64.3835 -0.723089 2.68822  255 255 255
70.2861 -0.86145 18.3065  255 255 255
64.1914 -1.22229 1.68473  255 255 255
71.5575 -1.29437 21.4051  255 255 255
59.2719 -1.79342 -12.2243  255 255 255
-22.0122 -1.67203 13.8495  255 255 255
71.5221 -1.49908 21.0211  255 255 255
-73.0481 -1.86524 -37.0304  255 255 255
56.8256 -2.57066 -18.3573  255 255 255
73.689 -1.91915 27.1042  255 255 255
-22.2675 -2.24622 14.7115  255 255 255
68.4977 -2.33809 12.2372  255 255 255
69.4956 -2.26357 15.4171  255 255 255
71.4782 -2.58374 20.0866  255 255 255
71.3893 -2.59789 20.1982  255 255 255
5.61227 -2.62554 35.6343  255 255 255
57.7059 -3.72861 -17.5315  255 255 255
64.7127 -3.47647 1.66475  255 255 255
68.7381 -3.40837 11.8655  255 255 255
73.6818 -3.46977 26.3501  255 255 255
67.0343 -3.97404 7.28858  255 255 255
68.2101 -3.9094 10.4352  255 255 255
75.41 -3.59067 29.8714  255 255 255
-27.6339 -3.95347 11.4646  255 255 255
1.26146 -3.53241 37.2638  255 255 255
69.951 -3.95082 14.93  255 255 255
69.9543 -3.95869 14.9439  255 255 255
-20.0684 -3.90932 26.6524  255 255 255
71.9259 -3.99602 18.8132  255 255 255
75.3358 -4.08456 29.696  255 255 255
-5.34783 -4.00936 37.1677  255 255 255
68.2277 -4.76198 9.1899  255 255 255
-3.68101 -4.05448 37.3367  255 255 255
0.909333 -4.24035 37.776  255 255 255
66.3069 -5.2962 4.21832  255 255 255
-49.9268 -6.08495 -31.9214  255 255 255
-76.845 -5.96011 -32.6322  255 255 255
72.0519 -4.97616 20.4666  255 255 255
-17.0719 -4.77111 30.9696  255 255 255
-3.44521 -4.73473 37.8743  255 255 255
-3.46108 -4.72809 37.9744  255 255 255
-10.2993 -5.02973 36.0237  255 255 255
9.60789 -5.16248 35.2749  255 255 255
56.2371 -7.20617 -23.3965  255 255 255
-61.0926 -7.44781 -29.4646  255 255 255
70.9461 -6.2531 16.0577  255 255 255
3.51057 -5.65162 37.9643  255 255 255
58.5088 -7.82615 -18.3707  255 255 255
1.94885 -5.76523 38.0895  255 255 255
56.7463 -8.74973 -24.7798  255 255 255
66.4103 -7.75664 2.52089  255 255 255
68.8866 -7.45665 10.6687  255 255 255
28.0682 -7.2975 15.1073  255 255 255
69.5109 -7.41621 12.7627  255 255 255
68.0469 -7.78811 6.95479  255 255 255
68.2157 -7.77972 7.50236  255 255 255
57.7834 -9.29739 -25.0475  255 255 255
57.0381 -9.25436 -23.1172  255 255 255
66.5642 -8.26964 2.65074  255 255 255
68.9473 -7.93917 9.71719  255 255 255
-31.3658 -7.4 15.4951  255 255 255
68.519 -8.036 8.01797  255 255 255
75.4096 -7.22888 27.6702  255 255 255
-16.1054 -6.78416 32.9581  255 255 255
-75.883 -9.14993 -27.9146  255 255 255
68.1984 -8.50921 5.77632  255 255 255
68.6135 -8.56693 7.93717  255 255 255
68.8503 -8.48204 8.71493  255 255 255
73.7921 -8.04251 22.8639  255 255 255
75.9949 -7.85709 28.9094  255 255 255
68.3258 -8.94988 6.67862  255 255 255
69.2974 -8.83384 9.71696  255 255 255
57.636 -10.4616 -23.6536  255 255 255
70.639 -8.6467 13.2796  255 255 255
75.455 -7.99202 27.6656  255 255 255
66.7878 -9.31194 2.33259  255 255 255
69.0578 -8.94907 8.89238  255 255 255
73.63 -8.29409 22.6527  255 255 255
73.63 -8.29409 22.6527  255 255 255
70.1439 -9.27474 11.8156  255 255 255
71.7754 -9.13533 17.0494  255 255 255
-29.4505 -8.79262 17.3421  255 255 255
66.6789 -10.1054 1.76487  255 255 255
66.7349 -10.1082 1.64821  255 255 255
68.7704 -9.78606 7.39477  255 255 255
75.9346 -8.80894 27.9825  255 255 255
60.9347 -11.1207 -13.802  255 255 255
-53.1929 -11.2474 -23.9394  255 255 255
-10.6141 -8.11225 37.1746  255 255 255
70.0685 -10.0652 10.0986  255 255 255
-56.3732 -11.4919 -23.7351  255 255 255
69.696 -10.2347 8.51116  255 255 255
-59.3365 -11.6468 -23.5972  255 255 255
70.2995 -10.2278 11.398  255 255 255
70.2897 -10.2255 11.4  255 255 255
-56.829 -11.6366 -23.286  255 255 255
-5.29997 -8.3682 38.9169  255 255 255
73.0815 -9.85825 19.3029  255 255 255
65.8792 -11.4226 -1.47275  255 255 255
-56.693 -12.1115 -22.8349  255 255 255
-56.711 -12.1007 -22.8085  255 255 255
59.4406 -12.6528 -20.4722  255 255 255
67.9447 -11.4365 3.56914  255 255 255
70.3702 -11.1131 11.6162  255 255 255
75.2297 -10.3194 25.237  255 255 255
-22.0089 -9.77036 26.4756  255 255 255
68.1786 -11.8011 4.14247  255 255 255
-22.6594 -10.1262 25.0318  255 255 255
-52.3959 -13.0939 -21.2778  255 255 255
-53.2777 -13.3259 -21.0161  255 255 255
-57.171 -13.353 -21.1282  255 255 255
75.6244 -10.8989 26.2465  255 255 255
75.6891 -10.887 26.1999  255 255 255
63.5305 -13.3558 -8.76349  255 255 255
75.5363 -10.9881 25.727  255 255 255
73.9294 -11.4066 21.4877  255 255 255
-23.4146 -10.5989 25.5734  255 255 255
68.2859 -12.6138 3.8837  255 255 255
68.1348 -12.6483 4.10643  255 255 255
76.3347 -11.2024 27.4254  255 255 255
0.144396 -10.0319 39.7144  255 255 255
61.7654 -14.3291 -14.0088  255 255 255
21.8978 -11.3758 25.8247  255 255 255
69.7939 -12.9443 7.92354  255 255 255
-69.5735 -14.302 -20.3164  255 255 255
67.9901 -13.5318 2.8634  255 255 255
-5.79578 -10.527 39.2229  255 255 255
68.7617 -13.7941 4.30359  255 255 255
-31.65 -11.8643 21.247  255 255 255
-60.53 -14.94 -20.1248  255 255 255
-25.0421 -11.6383 26.7936  255 255 255
67.9121 -14.2681 2.35474  255 255 255
11.0201 -11.5316 36.5763  255 255 255
68.4855 -14.682 2.75524  255 255 255
-60.1081 -15.6316 -18.501  255 255 255
-20.3782 -12.0374 29.7021  255 255 255
-20.3581 -12.0566 29.6577  255 255 255
76.0525 -13.2064 25.516  255 255 255
-8.90926 -11.8885 38.5002  255 255 255
65.5986 -16.3293 -7.27855  255 255 255
-23.5791 -12.7341 28.3061  255 255 255
7.16441 -12.3891 38.462  255 255 255
69.9079 -15.7134 6.08856  255 255 255
-4.92297 -12.2167 39.7363  255 255 255
70.4684 -15.7086 7.62191  255 255 255
69.5922 -16.0027 5.62724  255 255 255
68.2774 -16.4775 1.09333  255 255 255
68.2407 -16.4746 1.15514  255 255 255
71.1333 -15.8506 9.02215  255 255 255
76.6019 -14.4993 26.2174  255 255 255
76.1184 -14.6552 25.3626  255 255 255
76.4088 -14.7588 25.578  255 255 255
76.2935 -14.7403 25.7308  255 255 255
67.525 -17.4055 -0.972851  255 255 255
-21.4759 -13.7515 29.9183  255 255 255
73.3174 -15.9232 15.3952  255 255 255
73.3001 -15.9255 15.3999  255 255 255
-44.1218 -17.8686 -15.1693  255 255 255
-44.1147 -17.8766 -15.1757  255 255 255
-8.81677 -13.1167 38.7269  255 255 255
30.0569 -14.8862 24.5825  255 255 255
69.4073 -17.5263 3.75845  255 255 255
-72.4709 -18.4247 -16.7056  255 255 255
-62.8347 -18.3558 -15.5044  255 255 255
75.9602 -15.8065 23.5005  255 255 255
-2.72389 -13.5299 40.0367  255 255 255
68.4472 -18.3724 -0.0679679  255 255 255
71.2628 -17.6107 8.18325  255 255 255
73.0841 -17.107 13.3002  255 255 255
-14.9311 -14.159 35.371  255 255 255
-70.9889 -18.9367 -14.8134  255 255 255
-32.0039 -15.1381 25.5183  255 255 255
-18.7585 -14.5479 31.8185  255 255 255
-58.3313 -19.7649 -13.1538  255 255 255
77.4008 -16.8082 26.2113  255 255 255
70.5027 -19.1591 4.93529  255 255 255
-31.0073 -15.8607 26.4098  255 255 255
-70.2222 -19.941 -13.3654  255 255 255
-57.9258 -20.3888 -12.3528  255 255 255
-66.4371 -20.3911 -13.0418  255 255 255
-14.4848 -15.4409 35.7972  255 255 255
-18.1187 -15.7905 32.6571  255 255 255
69.0158 -20.3748 0.111127  255 255 255
70.3087 -19.9608 3.71174  255 255 255
-94.1532 -20.59 -12.8237  255 255 255
-63.2477 -20.8127 -11.9948  255 255 255
-29.1404 -16.557 27.4921  255 255 255
-23.5627 -16.245 30.9466  255 255 255
73.2667 -19.4099 12.2859  255 255 255
73.217 -19.3853 12.3164  255 255 255
13.0311 -16.0563 35.7946  255 255 255
74.5162 -19.059 16.7197  255 255 255
-12.73 -16.0279 36.6951  255 255 255
75.0532 -19.0874 19.6854  255 255 255
-63.6211 -21.4327 -11.4088  255 255 255
-5.70759 -15.9681 39.6468  255 255 255
77.6794 -18.6297 25.8423  255 255 255
-59.3026 -21.6049 -11.3197  255 255 255
-59.3026 -21.6049 -11.3196  255 255 255
23.4352 -17.6593 28.6473  255 255 255
69.8694 -21.4207 1.12507  255 255 255
75.0464 -20.364 11.2792  255 255 255
12.9691 -16.9088 34.9164  255 255 255
73.7474 -20.2532 12.6383  255 255 255
-64.7065 -21.8763 -11.5081  255 255 255
77.3207 -19.0215 24.4381  255 255 255
-5.24626 -16.2885 39.7168  255 255 255
69.8454 -21.9406 1.27964  255 255 255
77.0175 -19.9943 23.137  255 255 255
-32.6666 -19.0512 21.2778  255 255 255
17.1361 -18.016 34.2327  255 255 255
78.1578 -19.912 26.1454  255 255 255
-12.5889 -18.034 36.5162  255 255 255
-62.6522 -23.7341 -8.63979  255 255 255
69.5298 -24.2641 -0.822408  255 255 255
70.6793 -23.9387 2.0907  255 255 255
-52.3329 -24.0504 -8.1427  255 255 255
71.1865 -23.9847 3.17142  255 255 255
-4.90588 -18.1799 39.2676  255 255 255
0.32842 -18.2462 39.5816  255 255 255
6.03159 -18.6537 38.342  255 255 255
-62.7512 -24.3188 -7.85983  255 255 255
-68.4886 -24.6328 -7.92954  255 255 255
-69.2096 -24.7281 -8.00646  255 255 255
73.7825 -23.5804 12.8671  255 255 255
-2.33882 -18.9089 39.4593  255 255 255
-59.1849 -24.8605 -6.27012  255 255 255
-9.26033 -19.128 38.0144  255 255 255
25.1198 -20.6089 31.8589  255 255 255
70.8773 -25.5463 1.37949  255 255 255
-64.6576 -25.3303 -6.42225  255 255 255
7.35335 -19.5909 37.907  255 255 255
73.1428 -24.9823 7.15043  255 255 255
24.7897 -20.9043 32.4415  255 255 255
14.0332 -20.0836 37.0302  255 255 255
14.9565 -20.1339 36.9676  255 255 255
-2.30601 -19.9078 39.1852  255 255 255
11.7361 -20.3523 37.4606  255 255 255
24.7513 -21.2653 32.616  255 255 255
7.47321 -20.5201 38.1436  255 255 255
75.4229 -25.5119 13.1636  255 255 255
-17.0194 -20.5481 37.1109  255 255 255
-15.9638 -20.9764 37.8676  255 255 255
-5.37737 -21.3692 39.2399  255 255 255
-47.7713 -27.8265 -2.99664  255 255 255
-24.5812 -22.1944 34.3542  255 255 255
-28.0819 -22.4457 34.4421  255 255 255
7.55494 -22.288 39.7776  255 255 255
71.6255 -29.9569 0.256361  255 255 255
8.01484 -22.6882 40.3809  255 255 255
79.9086 -26.9614 24.1931  255 255 255
-4.83516 -22.83 41.1999  255 255 255
-5.1996 -23.0367 41.3336  255 255 255
77.7676 -28.6112 18.4783  255 255 255
-23.9444 -23.7528 36.199  255 255 255
-0.722107 -23.3103 41.3173  255 255 255
75.1719 -30.2539 10.0944  255 255 255
73.4403 -31.4947 4.33639  255 255 255
-20.4519 -24.1008 37.0275  255 255 255
-27.0646 -25.0632 31.6095  255 255 255
21.0668 -25.0417 36.8569  255 255 255
76.8804 -30.2007 14.5387  255 255 255
-11.3136 -24.2322 39.1823  255 255 255
-15.9339 -24.4192 37.7242  255 255 255
73.7453 -31.8016 7.12299  255 255 255
79.2201 -28.6864 25.0558  255 255 255
79.2201 -28.6864 25.0558  255 255 255
77.9889 -30.3135 20.14  255 255 255
75.2938 -31.9876 11.9954  255 255 255
77.2857 -31.5219 15.4609  255 255 255
77.2857 -31.5219 15.4609  255 255 255
-20.3996 -25.445 38.8185  255 255 255
75.3637 -33.2379 7.89777  255 255 255
76.6871 -32.4143 12.4439  255 255 255
-11.8411 -25.609 38.7448  255 255 255
75.3842 -33.1804 8.53478  255 255 255
-5.97908 -25.6201 40.6762  255 255 255
3.95897 -25.8015 40.5315  255 255 255
75.8921 -33.6932 8.20144  255 255 255
75.6779 -33.6734 8.38157  255 255 255
76.0076 -33.7173 8.14234  255 255 255
-9.51835 -26.0288 40.0292  255 255 255
78.6539 -31.9085 20.6687  255 255 255
-22.9691 -27.1256 34.5692  255 255 255
4.25847 -26.4255 40.3522  255 255 255
-61.6774 -33.1186 3.21437  255 255 255
15.2518 -26.9749 40.2443  255 255 255
79.3554 -32.5066 19.8573  255 255 255
15.2741 -27.2251 40.5943  255 255 255
15.2873 -27.2317 40.5326  255 255 255
-22.0487 -27.7589 35.188  255 255 255
76.7112 -34.2133 14.6039  255 255 255
-22.7735 -28.1902 34.0737  255 255 255
-19.1747 -27.2671 39.1014  255 255 255
13.9716 -27.566 40.8759  255 255 255
17.6854 -27.8881 41.1613  255 255 255
-12.8648 -27.3931 41.1584  255 255 255
14.4861 -28.0793 40.63  255 255 255
76.4807 -35.7518 12.7462  255 255 255
76.6721 -36.1693 10.2247  255 255 255
76.702 -36.1866 10.2763  255 255 255
-9.11182 -27.6925 41.45  255 255 255
77.5505 -36.2785 12.272  255 255 255
80.5414 -34.7927 20.483  255 255 255
-4.57809 -28.1756 42.177  255 255 255
8.42356 -28.4108 42.2854  255 255 255
-5.35893 -28.1827 42.137  255 255 255
7.65659 -28.506 42.403  255 255 255
80.9057 -35.2357 21.1851  255 255 255
9.134 -28.7842 42.7116  255 255 255
-12.7932 -28.5076 42.3712  255 255 255
-14.9471 -29.1154 40.5748  255 255 255
-7.57429 -28.7795 42.932  255 255 255
-9.49642 -28.7394 42.9993  255 255 255
-4.07295 -28.8569 43.0844  255 255 255
-4.08555 -28.8669 43.0313  255 255 255
-8.84959 -29.5128 43.6855  255 255 255
-60.0765 -37.2262 8.62858  255 255 255
-0.0336187 -30.0885 44.0259  255 255 255
-3.29718 -30.1396 43.9996  255 255 255
0.554888 -30.5917 43.6565  255 255 255
3.52386 -31.0202 43.1103  255 255 255
-15.8511 -31.9107 37.9248  255 255 255
-13.7677 -31.8727 38.9704  255 255 255
-0.480173 -31.4174 42.9076  255 255 255
80.5527 -39.7608 17.9323  255 255 255
-2.82318 -31.333 43.3558  255 255 255
-23.7676 -34.5891 29.2097  255 255 255
-27.1829 -35.8508 24.4742  255 255 255
-14.267 -32.6883 37.8926  255 255 255
69.5471 -42.0194 17.2434  255 255 255
-12.9798 -37.1207 35.23  255 255 255
-47.1818 -42.7202 15.6875  255 255 255
53.5216 -44.6315 18.5982  255 255 255
17.541 -40.1853 30.8143  255 255 255
17.3839 -40.0625 31.1562  255 255 255
10.6375 -39.7303 34.2506  255 255 255
10.36 -40.2178 34.0732  255 255 255
73.2756 -45.7754 23.0395  255 255 255
42.4827 -46.457 21.1761  255 255 255
40.6031 -46.5902 23.4446  255 255 255
0.749601 -41.5019 36.0479  255 255 255
1.39109 -42.1348 34.966  255 255 255
3.02762 -42.8762 34.0869  255 255 255
20.1025 -44.7373 31.9879  255 255 255
3.42376 -43.7776 33.4723  255 255 255
64.5577 -48.7315 26.1678  255 255 255
-6.6935 -43.6341 35.572  255 255 255
61.3042 -49.78 27.1945  255 255 255
77.0256 -50.2857 29.417  255 255 255
60.6541 -50.2724 27.9376  255 255 255
60.6626 -50.3202 27.974  255 255 255
36.2013 -50.2753 26.1979  255 255 255
66.9809 -50.781 29.5564  255 255 255
68.8599 -50.8347 29.8419  255 255 255
62.0966 -50.9827 29.0436  255 255 255
57.2261 -50.9204 29.2418  255 255 255
-54.2906 -50.2924 24.3598  255 255 255
64.6688 -51.8084 30.6823  255 255 255
-53.7815 -50.3972 25.5689  255 255 255
59.2366 -51.9728 30.3697  255 255 255
16.4964 -50.5459 30.7553  255 255 255
-15.8278 -49.3887 31.932  255 255 255
58.5309 -52.5679 31.1073  255 255 255
35.2367 -52.9108 29.5475  255 255 255
-13.024 -50.677 31.8141  255 255 255
56.0593 -53.356 32.0125  255 255 255
-1.7419 -50.5808 34.9283  255 255 255
0.324266 -51.8878 34.001  255 255 255
-34.2421 -53.1565 29.7447  255 255 255
49.0656 -54.5185 33.6141  255 255 255
47.8254 -55.156 32.6442  255 255 255
70.7885 -55.1479 35.5078  255 255 255
48.7803 -55.4777 32.9281  255 255 255
62.3348 -55.2377 35.047  255 255 255
26.8191 -55.4427 32.6399  255 255 255
26.7818 -55.4053 32.6981  255 255 255
-33.3402 -54.7431 31.6764  255 255 255
-41.5533 -54.841 31.3455  255 255 255
-34.0957 -55.1022 32.0066  255 255 255
-28.2448 -55.8175 33.0444  255 255 255
-26.3393 -56.0546 33.8031  255 255 255
39.5393 -58.4424 36.7536  255 255 255
54.9187 -58.4784 38.5064  255 255 255
63.4457 -58.5806 39.3186  255 255 255
54.1781 -59.0255 37.9512  255 255 255
34.4845 -58.6169 37.1679  255 255 255
68.3443 -58.8803 40.6079  255 255 255
-25.4363 -57.5286 35.3228  255 255 255
56.823 -59.1054 40.0028  255 255 255
56.823 -59.1054 40.0027  255 255 255
-37.5311 -57.7519 35.4278  255 255 255
-20.2911 -58.0602 36.2393  255 255 255
-30.3958 -58.6745 36.6662  255 255 255
36.1914 -60.5514 38.9491  255 255 255
57.9606 -60.5102 41.9762  255 255 255
-45.0194 -59.53 36.5133  255 255 255
-24.687 -59.4018 37.4738  255 255 255
-44.508 -59.4541 37.1004  255 255 255
-40.5589 -59.514 37.2158  255 255 255
-22.2162 -59.682 37.6373  255 255 255
23.1901 -60.5332 39.5892  255 255 255
-25.9876 -60.1532 38.3208  255 255 255
-10.5654 -60.5616 39.1749  255 255 255
55.5157 -61.6507 43.4203  255 255 255
-10.2251 -60.7293 39.1293  255 255 255
40.5325 -62.0676 42.3812  255 255 255
-8.03991 -60.7941 39.6844  255 255 255
-2.2235 -60.8262 40.695  255 255 255
-17.9811 -60.8989 39.6128  255 255 255
-0.568827 -61.2449 40.059  255 255 255
4.63345 -61.2685 40.7828  255 255 255
45.2084 -62.142 43.4021  255 255 255
-10.4286 -60.911 40.825  255 255 255
-2.78212 -61.3256 40.6626  255 255 255
-16.4758 -60.971 40.77  255 255 255
-16.4367 -61.2648 40.1355  255 255 255
7.51471 -61.8299 40.8899  255 255 255
7.53459 -61.8572 40.8071  255 255 255
52.2666 -62.3753 44.5137  255 255 255
3.46131 -61.8315 40.759  255 255 255
-7.49671 -61.6242 40.7601  255 255 255
2.06784 -61.6869 41.5857  255 255 255
1.15546 -62.1421 40.7895  255 255 255
-11.3366 -61.8317 40.7685  255 255 255
56.2469 -63.0197 45.3544  255 255 255
-19.7326 -61.6582 41.3271  255 255 255
-19.7326 -61.6583 41.3271  255 255 255
33.4056 -62.7657 43.7426  255 255 255
46.275 -63.2904 45.0513  255 255 255
34.7939 -63.2749 44.674  255 255 255
54.7446 -63.6005 46.1117  255 255 255
54.7445 -63.6005 46.1119  255 255 255
-20.3724 -62.6682 41.8026  255 255 255
-20.3707 -62.6874 41.7643  255 255 255
-18.837 -62.6789 41.9061  255 255 255
-18.8631 -62.4202 42.4328  255 255 255
48.9603 -64.3063 45.1224  255 255 255
25.2301 -63.4968 44.4456  255 255 255
53.4839 -63.9384 46.4478  255 255 255
-6.67065 -62.9841 42.6832  255 255 255
-18.9743 -62.8922 42.201  255 255 255
62.8894 89.6988 -101.971  255 255 255
-84.2196 63.2006 -27.2251  255 255 255
6.97232 78.6907 -74.6364  255 255 255
7.04788 78.7858 -74.8955  255 255 255
73.8557 91.21 -107.472  255 255 255
5.47636 78.2888 -73.9555  255 255 255
-72.2299 64.6831 -33.2502  255 255 255
44.925 85.3269 -94.914  255 255 255
1.58376 77.1115 -72.3597  255 255 255
-165.346 98.533 -141.349  255 255 255
-6.3127 74.855 -69.5894  255 255 255
61.1352 59.679 -14.8978  255 255 255
65.8917 87.9095 -105.597  255 255 255
-57.2635 66.1505 -43.7804  255 255 255
85.6174 91.2222 -114.77  255 255 255
20.3204 78.7025 -83.2735  255 255 255
80.801 89.8236 -112.973  255 255 255
61.4236 59.0166 -15.8829  255 255 255
-13.1676 72.5802 -66.6827  255 255 255
-13.179 72.5002 -66.7202  255 255 255
-14.5849 72.0467 -65.6245  255 255 255
75.9823 88.2558 -111.234  255 255 255
85.5327 89.866 -115.516  255 255 255
-60.5964 64.4623 -42.0047  255 255 255
62.6826 57.496 -13.9163  255 255 255
74.8475 86.8007 -111.632  255 255 255
37.8465 79.9539 -93.7237  255 255 255
73.5008 86.4352 -111.232  255 255 255
63.6932 56.3713 -11.0128  255 255 255
71.8891 85.809 -110.471  255 255 255
-72.4594 60.5566 -33.7399  255 255 255
3.7489 73.5279 -76.2667  255 255 255
64.1527 55.5949 -9.94525  255 255 255
31.906 78.4524 -90.9396  255 255 255
58.1752 59.4557 -24.2802  255 255 255
56.1222 47.5343 15.4453  255 255 255
38.5277 78.7938 -94.9637  255 255 255
71.8608 84.5155 -111.292  255 255 255
-98.5776 59.112 -32.5749  255 255 255
56.3416 46.6689 15.6066  255 255 255
0.690168 71.2694 -76.0014  255 255 255
58.0016 45.565 17.2728  255 255 255
-56.6235 61.7908 -46.55  255 255 255
-37.313 63.9765 -55.4354  255 255 255
-37.173 64.4841 -56.9826  255 255 255
-25.0151 66.2546 -63.2063  255 255 255
-26.4064 65.8547 -62.9673  255 255 255
81.739 83.5803 -120.211  255 255 255
-72.7142 58.2858 -38.1775  255 255 255
60.3867 42.1372 23.2042  255 255 255
62.0971 53.3967 -17.5025  255 255 255
21.3955 71.7084 -89.4647  255 255 255
-11.302 66.0606 -72.4021  255 255 255
-126.961 69.5929 -83.6593  255 255 255
-12.2377 65.3024 -72.6793  255 255 255
-12.2619 65.3063 -72.6438  255 255 255
-22.8609 63.2236 -67.1466  255 255 255
-11.5492 64.9517 -73.0734  255 255 255
-59.8244 57.8745 -47.7496  255 255 255
63.9938 50.574 -13.908  255 255 255
81.0611 81.8454 -132.541  255 255 255
-0.528143 65.8175 -79.8682  255 255 255
60.6555 40.5783 22.1135  255 255 255
-18.5531 62.7649 -70.5115  255 255 255
3.31428 66.0312 -82.2744  255 255 255
63.1248 38.5706 28.1116  255 255 255
0.00778502 64.9196 -80.9967  255 255 255
64.8766 49.0531 -12.7223  255 255 255
-16.7494 62.1805 -71.9718  255 255 255
-16.7462 62.194 -71.9666  255 255 255
58.2797 41.0335 16.0109  255 255 255
63.4875 38.0741 28.1061  255 255 255
60.8272 39.6018 21.6469  255 255 255
30.2944 68.6385 -96.5858  255 255 255
45.2395 70.7917 -104.306  255 255 255
64.2228 37.3667 29.4073  255 255 255
-6.47729 62.752 -78.4744  255 255 255
-14.81 61.4234 -74.31  255 255 255
65.42 73.6216 -115.382  255 255 255
63.8746 37.5587 28.2203  255 255 255
64.5157 36.4218 32.5511  255 255 255
64.4612 36.6135 30.51  255 255 255
64.7174 36.0677 32.9408  255 255 255
64.7174 36.0677 32.9408  255 255 255
63.0212 37.7709 25.3739  255 255 255
65.1136 35.8677 31.2084  255 255 255
63.0306 48.1711 -19.9707  255 255 255
65.2712 35.6112 31.7929  255 255 255
-71.5773 52.0737 -44.1597  255 255 255
65.9097 34.6294 34.7316  255 255 255
56.9498 69.8719 -113.193  255 255 255
63.5129 36.4283 25.987  255 255 255
66.13 34.1126 35.5214  255 255 255
63.9066 36.084 27.1202  255 255 255
66.1774 34.5504 33.2596  255 255 255
57.2663 39.3446 12.0921  255 255 255
66.4013 34.068 34.5664  255 255 255
-87.3851 49.1647 -35.8549  255 255 255
64.5447 35.0973 27.5276  255 255 255
59.9985 47.953 -28.6595  255 255 255
66.448 33.8356 32.573  255 255 255
59.1142 47.9874 -29.3458  255 255 255
59.2005 48.0183 -29.4509  255 255 255
59.0984 47.9768 -29.3305  255 255 255
-125.584 60.7635 -89.2785  255 255 255
67.7138 32.5011 36.6891  255 255 255
-6.55293 57.8402 -82.9008  255 255 255
-55.1523 51.3872 -55.031  255 255 255
67.7324 32.3046 36.2018  255 255 255
67.9518 32.1594 37.1385  255 255 255
-56.7419 50.3804 -53.2511  255 255 255
61.2401 45.7457 -26.1384  255 255 255
67.5919 32.1495 34.8696  255 255 255
68.627 31.1799 37.7978  255 255 255
57.9347 46.7585 -34.3662  255 255 255
-7.21546 55.9259 -82.1165  255 255 255
60.4446 35.1124 18.0414  255 255 255
-68.1827 48.1837 -49.1893  255 255 255
59.5251 45.3031 -30.4203  255 255 255
59.5062 45.2932 -30.3813  255 255 255
-25.845 52.8924 -72.6616  255 255 255
-31.5151 52.3104 -70.5659  255 255 255
60.1483 44.7899 -30.0991  255 255 255
57.49 36.1665 9.58907  255 255 255
57.1824 36.0571 10.0316  255 255 255
-42.1203 50.4132 -64.3642  255 255 255
57.2206 45.7819 -36.3646  255 255 255
61.7997 43.5312 -25.5129  255 255 255
57.3746 35.5729 10.235  255 255 255
-44.303 49.8473 -63.6209  255 255 255
57.6872 35.614 8.66791  255 255 255
29.5716 58.5582 -104.766  255 255 255
57.8768 34.8323 10.9116  255 255 255
61.5021 33.1862 19.1219  255 255 255
59.7989 33.7235 15.0197  255 255 255
10.9089 55.0085 -95.7483  255 255 255
-80.4039 43.9365 -45.5403  255 255 255
-81.3582 43.5043 -44.6187  255 255 255
60.6439 32.4104 15.9197  255 255 255
-59.2162 45.8382 -59.1348  255 255 255
69.1795 28.3169 35.9795  255 255 255
-86.1539 41.2082 -39.2833  255 255 255
61.3518 39.8182 -28.7716  255 255 255
-4.55949 49.7805 -89.2647  255 255 255
-49.7553 44.5141 -63.4847  255 255 255
61.8137 39.1907 -28.0979  255 255 255
65.3202 29.0091 26.2194  255 255 255
66.2621 28.5599 28.2669  255 255 255
-90.1081 40.1474 -40.996  255 255 255
-90.1145 40.161 -41.026  255 255 255
60.4897 30.5826 14.3944  255 255 255
-2.00746 49.0249 -91.6312  255 255 255
73.6351 52.5837 -102.345  255 255 255
-20.1008 44.7949 -72.1123  255 255 255
-6.10897 48.0046 -89.7838  255 255 255
62.8722 37.5425 -26.0158  255 255 255
-86.8069 39.6323 -43.2634  255 255 255
-86.8202 39.6161 -43.1218  255 255 255
-140.127 52.0933 -107.073  255 255 255
-2.38225 48.2373 -92.5973  255 255 255
-41.7412 43.7535 -69.4027  255 255 255
63.4208 36.9103 -25.1113  255 255 255
60.1645 29.9514 12.9097  255 255 255
58.2695 39.2603 -39.3223  255 255 255
57.2124 30.8942 6.34134  255 255 255
57.1602 30.8778 6.39866  255 255 255
62.2286 37.0525 -30.1111  255 255 255
-4.68265 46.9584 -91.4306  255 255 255
63.947 36.1088 -24.1862  255 255 255
-2.31611 46.7501 -92.9896  255 255 255
-7.73725 46.0315 -90.3416  255 255 255
61.2196 28.6465 15.3535  255 255 255
63.2579 27.71 19.7807  255 255 255
66.2511 26.4181 26.6741  255 255 255
66.2398 26.3893 26.6713  255 255 255
-7.18042 45.2512 -91.0086  255 255 255
-43.0175 41.0886 -70.0921  255 255 255
-41.3871 41.2025 -71.2038  255 255 255
-41.3484 41.0907 -70.6787  255 255 255
-135.886 46.6861 -100.185  255 255 255
-69.6084 38.1532 -55.4319  255 255 255
-35.4123 41.2056 -76.2784  255 255 255
-35.4365 41.1962 -76.2567  255 255 255
-62.4868 38.3502 -59.5808  255 255 255
-42.8411 39.7198 -71.4058  255 255 255
-75.1795 35.6385 -50.9924  255 255 255
56.334 28.1801 1.69751  255 255 255
-70.4918 36.5945 -56.4097  255 255 255
-28.5941 39.3047 -81.4029  255 255 255
-56.3692 36.82 -65.2929  255 255 255
67.8572 23.2583 28.9656  255 255 255
-90.5769 33.9155 -45.1114  255 255 255
-91.6172 33.7118 -45.4208  255 255 255
58.1742 26.3568 5.79397  255 255 255
58.1712 26.3561 5.79879  255 255 255
57.8346 26.4155 5.19003  255 255 255
68.4758 22.6001 30.2267  255 255 255
-75.2394 34.5805 -55.514  255 255 255
4.57574 39.0492 -87.6514  255 255 255
58.619 25.9575 5.48603  255 255 255
-68.7172 34.7683 -59.3734  255 255 255
61.2311 24.8339 12.5012  255 255 255
61.3006 24.8588 12.4267  255 255 255
-41.7544 36.6496 -75.0471  255 255 255
57.3978 26.019 3.21406  255 255 255
65.9962 39.4145 -86.3204  255 255 255
-85.8642 33.006 -49.72  255 255 255
68.2721 22.1171 28.523  255 255 255
59.1343 31.9897 -41.2262  255 255 255
-78.6884 33.5184 -58.3438  255 255 255
59.1383 24.5285 6.9565  255 255 255
-39.2963 34.9501 -76.7875  255 255 255
59.5829 29.9341 -39.5992  255 255 255
63.9525 28.7616 -31.0891  255 255 255
64.0251 28.7961 -31.2635  255 255 255
66.7811 20.8433 25.3104  255 255 255
-7.39657 33.7994 -80.3538  255 255 255
-93.8651 29.6476 -47.0158  255 255 255
5.59705 33.4358 -79.7404  255 255 255
66.2983 20.5753 22.4473  255 255 255
-79.3383 30.5669 -61.8542  255 255 255
59.3811 22.2473 6.50616  255 255 255
59.3971 27.9521 -41.7835  255 255 255
2.79565 30.7799 -76.3187  255 255 255
-68.9264 29.1133 -62.8082  255 255 255
68.575 18.6234 29.1123  255 255 255
70.8216 18.0268 33.4565  255 255 255
64.6835 25.2474 -30.0377  255 255 255
-90.1027 27.2369 -50.5993  255 255 255
63.7984 25.3304 -31.8636  255 255 255
63.9594 25.3799 -32.0481  255 255 255
71.1213 17.5839 34.0173  255 255 255
-69.6219 28.1908 -63.6531  255 255 255
-90.74 26.8719 -53.2355  255 255 255
58.2956 20.387 2.09166  255 255 255
66.5592 18.1823 22.2999  255 255 255
62.5973 24.6685 -35.0005  255 255 255
-69.8539 27.2945 -63.4841  255 255 255
-69.3915 27.3081 -64.8632  255 255 255
28.8882 28.2219 -73.3732  255 255 255
67.2057 17.8547 23.6533  255 255 255
-88.0176 25.2157 -54.1146  255 255 255
62.711 18.0973 11.0426  255 255 255
62.2781 17.9677 10.5031  255 255 255
6.02531 25.4175 -68.546  255 255 255
59.8432 18.2612 5.89576  255 255 255
60.0493 18.3058 5.50646  255 255 255
60.0976 18.3313 5.45616  255 255 255
4.00592 25.1183 -69.2409  255 255 255
58.8994 18.4595 1.15602  255 255 255
-37.4976 24.5826 -68.4821  255 255 255
57.352 18.4616 -2.34127  255 255 255
57.3003 18.4205 -2.07045  255 255 255
-75.0081 24.3293 -63.2149  255 255 255
66.7489 16.1618 21.4527  255 255 255
-88.1803 23.3426 -53.4902  255 255 255
60.4474 17.0525 5.02038  255 255 255
-85.57 22.6267 -55.2043  255 255 255
66.7655 15.5606 20.8801  255 255 255
28.0198 23.3255 -66.8649  255 255 255
-41.0606 22.3865 -66.2082  255 255 255
-84.9963 21.6465 -54.3123  255 255 255
-85.7306 22.0118 -57.3554  255 255 255
-73.8154 22.5973 -66.8707  255 255 255
1.05021 21.9753 -65.6549  255 255 255
-13.2039 21.3063 -64.689  255 255 255
-13.2226 21.2994 -64.7797  255 255 255
-34.9925 20.3626 -63.3054  255 255 255
71.9118 12.5644 33.0676  255 255 255
-8.42024 17.6325 -59.9275  255 255 255
-9.74959 17.2438 -59.4478  255 255 255
-0.69117 16.7691 -58.6387  255 255 255
61.9045 12.6488 5.89575  255 255 255
-14.8379 16.4616 -59.1617  255 255 255
62.1527 11.9036 5.96419  255 255 255
-11.4719 15.449 -57.2585  255 255 255
-11.4481 15.4264 -57.2051  255 255 255
-12.2513 15.2232 -56.8643  255 255 255
59.2462 11.315 -2.12496  255 255 255
59.2437 11.3198 -2.12493  255 255 255
60.9417 10.6117 1.99426  255 255 255
0.676194 8.39796 22.1626  255 255 255
59.8573 10.3826 -0.947194  255 255 255
72.6787 8.07879 31.2873  255 255 255
61.0887 9.20705 1.37433  255 255 255
70.9876 7.70647 27.8951  255 255 255
-57.8134 10.9876 -52.5746  255 255 255
65.9732 7.82547 14.2144  255 255 255
-16.6197 10.3614 -50.5325  255 255 255
-16.606 10.3709 -50.7502  255 255 255
66.2127 7.28416 15.1475  255 255 255
-22.7701 9.45537 -49.6649  255 255 255
-25.3286 9.30924 -49.2328  255 255 255
6.10425 5.68787 24.3232  255 255 255
53.3076 9.14734 -48.4558  255 255 255
55.9741 7.70321 -14.3918  255 255 255
71.0474 6.26833 25.7428  255 255 255
71.033 6.26914 25.7616  255 255 255
-44.0973 8.51807 -48.799  255 255 255
73.6542 5.59596 32.248  255 255 255
71.2819 5.75748 26.1296  255 255 255
67.1705 6.03269 16.8138  255 255 255
-26.0299 8.02406 -48.3319  255 255 255
-26.0171 7.9651 -47.6643  255 255 255
66.2124 5.96182 12.5465  255 255 255
64.3145 5.87038 7.62648  255 255 255
62.9455 5.79879 3.73293  255 255 255
6.9428 4.45139 24.6902  255 255 255
-35.6295 7.06617 -48.5938  255 255 255
-26.7622 6.85833 -46.4205  255 255 255
-27.8881 6.47055 -45.499  255 255 255
66.2444 4.84019 11.7676  255 255 255
67.6456 4.73403 15.3636  255 255 255
-26.9082 6.02288 -45.4193  255 255 255
-26.9592 6.03246 -45.3495  255 255 255
-41.7556 6.08616 -45.9527  255 255 255
66.1669 4.55171 10.8783  255 255 255
-50.6427 5.51924 -45.1219  255 255 255
72.1191 3.82245 26.7713  255 255 255
66.7719 4.05833 12.3769  255 255 255
71.0294 3.75212 23.7143  255 255 255
64.0693 4.14562 5.98989  255 255 255
68.2376 3.78372 16.5895  255 255 255
-40.6261 4.64122 -43.8469  255 255 255
-13.6277 2.72515 27.254  255 255 255
-13.5878 2.80849 26.5739  255 255 255
66.9678 3.56246 12.2297  255 255 255
-27.2141 4.46235 -43.2505  255 255 255
-27.2134 4.47677 -43.2913  255 255 255
68.368 3.31835 16.059  255 255 255
-12.5998 2.55984 28.5323  255 255 255
69.1261 3.26605 18.0808  255 255 255
-77.701 4.62858 -46.2315  255 255 255
67.546 3.16503 14.4571  255 255 255
70.9332 2.99437 21.0816  255 255 255
65.2839 3.03353 8.08276  255 255 255
67.2406 2.83927 12.6679  255 255 255
67.2406 2.83927 12.6679  255 255 255
68.334 2.69011 15.6768  255 255 255
-40.9762 3.3756 -41.6852  255 255 255
-42.1278 3.27476 -41.9785  255 255 255
-15.2062 1.66839 27.4522  255 255 255
69.6342 1.96138 16.5725  255 255 255
69.0434 2.00587 17.3806  255 255 255
67.226 1.98998 12.1625  255 255 255
67.2204 1.97985 12.1597  255 255 255
73.6687 1.75675 29.4318  255 255 255
69.9448 1.77701 19.7694  255 255 255
-77.5363 2.73395 -42.8218  255 255 255
69.1289 1.59475 16.915  255 255 255
71.1918 1.34594 23.3261  255 255 255
71.1918 1.34594 23.3261  255 255 255
68.9982 1.35489 16.4007  255 255 255
68.9982 1.35489 16.4007  255 255 255
-49.5916 1.75349 -40.7777  255 255 255
66.2741 1.4082 9.11668  255 255 255
-42.3424 1.67955 -39.5272  255 255 255
68.8098 1.11 15.7779  255 255 255
74.2413 0.862751 30.5862  255 255 255
66.5702 0.885826 10.0048  255 255 255
72.4478 0.701004 25.3259  255 255 255
73.0138 0.752829 26.4923  255 255 255
71.9551 0.669258 23.8187  255 255 255
69.8427 0.56897 18.3371  255 255 255
-17.4477 0.138291 26.8631  255 255 255
62.7913 0.54721 -0.555389  255 255 255
71.4791 0.402237 22.5717  255 255 255
62.669 0.0236487 -0.94623  255 255 255
62.6961 0.0286262 -1.00431  255 255 255
70.4832 0.0112561 19.3799  255 255 255
70.4358 -0.0300908 19.4406  255 255 255
71.1567 -0.106253 21.4619  255 255 255
-7.34457 -0.488774 33.4419  255 255 255
12.2778 -0.634734 30.9473  255 255 255
69.8059 -0.348665 17.2534  255 255 255
70.0639 -0.396385 18.3407  255 255 255
71.2196 -0.517788 20.7352  255 255 255
67.6841 -0.491743 11.4459  255 255 255
74.5992 -0.69641 29.9432  255 255 255
70.8423 -0.876827 20.0785  255 255 255
-15.1477 -1.51157 30.4207  255 255 255
64.9402 -1.55864 2.63436  255 255 255
69.8154 -1.39338 16.4718  255 255 255
73.4809 -1.43743 26.056  255 255 255
72.6408 -1.46381 27.2756  255 255 255
67.6525 -1.69628 12.1494  255 255 255
71.4589 -1.8033 20.388  255 255 255
71.4589 -1.8033 20.388  255 255 255
68.7282 -2.01362 13.6517  255 255 255
-15.6806 -2.12423 30.5835  255 255 255
-20.0265 -2.37165 25.3648  255 255 255
69.4514 -2.60908 15.2761  255 255 255
69.4426 -2.60622 15.2869  255 255 255
57.227 -3.23649 -17.7007  255 255 255
57.4609 -3.26408 -18.0283  255 255 255
-46.9939 -3.40787 -33.8471  255 255 255
70.9128 -2.86233 17.9841  255 255 255
70.9128 -2.86233 17.9841  255 255 255
56.9627 -3.79477 -19.3757  255 255 255
63.6686 -3.52365 -1.81813  255 255 255
70.9288 -3.69635 17.7939  255 255 255
70.9037 -3.69705 17.815  255 255 255
-17.8495 -3.52436 29.3201  255 255 255
-17.1217 -3.63498 29.9978  255 255 255
-15.4047 -3.68828 31.9063  255 255 255
-72.5335 -4.93632 -33.0938  255 255 255
75.3952 -4.48788 29.6265  255 255 255
60.2191 -5.7365 -12.7524  255 255 255
70.6836 -4.8977 17.6258  255 255 255
-1.74546 -4.44712 37.758  255 255 255
-72.2398 -6.08289 -31.4507  255 255 255
71.3734 -5.16014 17.6227  255 255 255
72.496 -5.21775 21.5063  255 255 255
56.0654 -6.84374 -24.9844  255 255 255
71.6086 -5.74259 18.2731  255 255 255
72.5861 -5.84983 21.352  255 255 255
72.3107 -5.96974 20.3392  255 255 255
-30.5424 -6.17636 13.7322  255 255 255
-18.6126 -5.68802 29.8922  255 255 255
68.7209 -6.61359 9.87185  255 255 255
-75.5738 -7.64548 -30.1232  255 255 255
60.9784 -7.70279 -12.6097  255 255 255
68.5236 -6.90069 9.10255  255 255 255
74.2296 -6.26344 24.8299  255 255 255
57.1703 -8.18221 -22.8174  255 255 255
-73.9194 -7.89882 -28.4863  255 255 255
-22.209 -6.22477 24.3446  255 255 255
4.27005 -5.87768 37.6873  255 255 255
72.4586 -6.90078 19.7327  255 255 255
72.8204 -6.97698 22.0052  255 255 255
75.1774 -6.88805 27.6703  255 255 255
75.2108 -6.88301 27.6724  255 255 255
67.2808 -8.0182 4.39969  255 255 255
71.1979 -7.44631 15.8042  255 255 255
72.4929 -7.30296 20.6781  255 255 255
-92.4188 -8.81038 -27.5812  255 255 255
-92.7404 -8.88053 -28.6679  255 255 255
55.8519 -9.53942 -25.2446  255 255 255
68.1079 -8.25497 6.71691  255 255 255
73.6993 -7.52161 23.571  255 255 255
-33.1871 -7.73031 14.9526  255 255 255
69.3269 -8.27323 10.5237  255 255 255
62.637 -9.31468 -8.69105  255 255 255
62.637 -9.31468 -8.69105  255 255 255
-24.9649 -7.70722 21.7314  255 255 255
6.57055 -7.24743 37.5669  255 255 255
74.059 -8.17933 23.3683  255 255 255
57.9037 -10.9257 -22.9717  255 255 255
-124.028 -10.2349 -27.007  255 255 255
73.7392 -8.74421 22.3401  255 255 255
-2.98525 -7.64468 39.0923  255 255 255
-2.98839 -7.63537 39.0955  255 255 255
74.9518 -8.75299 25.8084  255 255 255
74.4097 -8.79862 24.1324  255 255 255
60.8392 -11.1668 -14.9153  255 255 255
74.0064 -9.14931 22.8823  255 255 255
62.4235 -11.2845 -10.0849  255 255 255
67.3425 -10.6446 2.66038  255 255 255
6.0786 -8.63261 38.1516  255 255 255
70.0414 -10.8902 10.1292  255 255 255
-25.8187 -9.76799 24.2666  255 255 255
66.2058 -11.9489 -1.51655  255 255 255
74.9271 -10.3899 24.7718  255 255 255
66.0323 -12.5413 -2.85013  255 255 255
67.205 -12.2378 1.41406  255 255 255
67.288 -12.2332 1.32389  255 255 255
75.9338 -10.9109 27.092  255 255 255
60.0374 -14.0945 -18.1027  255 255 255
60.0374 -14.0945 -18.1027  255 255 255
67.4082 -12.681 1.42888  255 255 255
-58.0843 -13.5469 -21.082  255 255 255
68.1953 -13.111 3.01375  255 255 255
68.1946 -13.1097 3.02224  255 255 255
65.6949 -13.6802 -3.88733  255 255 255
-10.1956 -10.2223 38.2986  255 255 255
76.4943 -11.5002 27.8565  255 255 255
-14.0786 -10.5233 35.6156  255 255 255
76.2703 -11.6356 27.3278  255 255 255
63.5208 -14.5918 -10.5377  255 255 255
70.0234 -13.4219 9.02464  255 255 255
76.1859 -11.975 26.8691  255 255 255
-83.3172 -14.6447 -21.5943  255 255 255
76.0192 -12.1825 25.7671  255 255 255
-84.0513 -14.8636 -22.107  255 255 255
-10.3512 -10.836 37.8376  255 255 255
-23.8103 -11.669 27.1263  255 255 255
69.4217 -14.0418 6.37951  255 255 255
69.4588 -14.0332 6.40024  255 255 255
76.2437 -12.4354 27.7779  255 255 255
63.9441 -15.1959 -9.87884  255 255 255
61.2218 -16.2148 -16.9697  255 255 255
-44.8621 -15.6232 -18.338  255 255 255
6.58178 -11.5854 38.727  255 255 255
-16.7553 -11.9534 33.8837  255 255 255
-60.5681 -16.1216 -17.82  255 255 255
70.4448 -15.2048 7.75705  255 255 255
62.0741 -17.5405 -15.3701  255 255 255
-58.4387 -16.8409 -17.1427  255 255 255
12.0622 -12.654 36.4212  255 255 255
-19.4173 -13.3063 31.0602  255 255 255
68.9083 -16.8975 2.16639  255 255 255
70.3042 -16.4781 6.66431  255 255 255
70.3042 -16.4781 6.6643  255 255 255
69.1091 -16.9771 3.09611  255 255 255
-0.526834 -12.9107 40.2422  255 255 255
-58.6603 -17.8349 -15.0649  255 255 255
-58.7545 -17.8707 -15.6083  255 255 255
68.11 -17.3899 -0.60174  255 255 255
-25.053 -14.3475 28.1418  255 255 255
-71.0894 -18.4371 -15.3491  255 255 255
-12.5654 -13.889 37.0776  255 255 255
-27.647 -15.1633 25.8409  255 255 255
-53.631 -19.4991 -13.4129  255 255 255
-27.22 -15.5838 26.2465  255 255 255
-70.3412 -19.5125 -14.1936  255 255 255
12.2449 -15.0064 35.4623  255 255 255
70.2401 -19.5945 4.29428  255 255 255
71.615 -19.2847 8.31945  255 255 255
0.63391 -15.0829 40.0605  255 255 255
-66.2616 -21.3177 -11.8889  255 255 255
71.3247 -21.1219 5.46204  255 255 255
77.0579 -19.0118 25.5387  255 255 255
-4.87643 -16.43 39.723  255 255 255
-67.6557 -22.3476 -10.5995  255 255 255
7.17906 -16.9175 38.6606  255 255 255
-3.63842 -16.7168 39.6755  255 255 255
-21.7579 -17.3204 33.783  255 255 255
7.68894 -17.1493 38.3667  255 255 255
70.8592 -22.6021 3.21208  255 255 255
70.8627 -22.5962 3.19731  255 255 255
-8.47238 -17.8799 38.5427  255 255 255
24.6978 -19.4254 30.4107  255 255 255
-11.0484 -18.1939 37.4569  255 255 255
-11.0576 -18.188 37.5125  255 255 255
-17.441 -18.5471 35.6627  255 255 255
-17.441 -18.5471 35.6627  255 255 255
70.8466 -24.1721 2.70175  255 255 255
53.9741 -25.4934 -5.12636  255 255 255
-17.3078 -18.9206 36.229  255 255 255
73.2048 -24.1006 8.22991  255 255 255
72.6789 -24.4195 7.90424  255 255 255
72.6992 -24.4192 7.86768  255 255 255
70.8785 -25.1243 3.58094  255 255 255
56.5556 -26.2883 -3.71018  255 255 255
-22.7311 -20.1603 32.4094  255 255 255
53.1783 -26.5275 -4.29579  255 255 255
12.3889 -20.4433 37.796  255 255 255
68.9363 -27.3951 -2.78287  255 255 255
-21.8329 -20.9531 33.3271  255 255 255
72.6804 -26.5133 6.97872  255 255 255
-50.6332 -26.883 -4.13436  255 255 255
-8.80569 -20.947 38.3788  255 255 255
53.7162 -28.3683 -1.43931  255 255 255
53.7143 -28.3535 -1.47376  255 255 255
-24.3438 -22.1077 34.3256  255 255 255
54.2153 -29.0972 -0.758408  255 255 255
54.2153 -29.0972 -0.758403  255 255 255
74.7676 -27.774 10.0631  255 255 255
75.1318 -27.7962 9.78902  255 255 255
-8.74207 -22.1582 40.3129  255 255 255
-25.9273 -23.5188 34.1164  255 255 255
9.5095 -23.0831 39.3344  255 255 255
77.6205 -28.1084 18.5781  255 255 255
-15.7511 -23.8482 37.3662  255 255 255
-15.7511 -23.8482 37.3662  255 255 255
-22.4176 -24.2469 37.0338  255 255 255
-27.3712 -25.5292 30.9873  255 255 255
78.5999 -29.8388 19.2379  255 255 255
79.5867 -29.2951 23.6393  255 255 255
17.6643 -25.4451 38.3454  255 255 255
18.902 -25.4739 38.6786  255 255 255
-14.2059 -25.0734 38.5168  255 255 255
-16.485 -25.3005 38.771  255 255 255
-12.348 -25.4718 38.8159  255 255 255
64.481 -33.8611 5.74191  255 255 255
10.5067 -26.3184 39.7287  255 255 255
78.3531 -32.2604 17.4561  255 255 255
77.6842 -32.0887 18.4322  255 255 255
-16.6107 -26.0603 39.281  255 255 255
80.2309 -32.1149 22.1386  255 255 255
79.3954 -31.7723 24.166  255 255 255
-11.5329 -26.9198 40.5967  255 255 255
-22.3875 -28.6158 34.1937  255 255 255
13.1974 -27.7221 41.1958  255 255 255
3.72313 -27.652 41.3722  255 255 255
-18.8731 -27.8008 41.609  255 255 255
-7.40738 -28.2699 42.2712  255 255 255
-7.4267 -28.2566 42.3109  255 255 255
62.263 -37.4288 10.3788  255 255 255
-65.7051 -36.3382 6.40045  255 255 255
-49.9138 -36.3736 7.03341  255 255 255
8.13861 -29.0779 43.1953  255 255 255
-48.8345 -36.6431 7.98206  255 255 255
-11.9137 -30.0188 41.5211  255 255 255
6.47151 -29.8674 44.2338  255 255 255
6.47787 -29.883 44.2054  255 255 255
-65.5626 -37.4432 8.1623  255 255 255
-48.3667 -37.3589 8.85598  255 255 255
-50.3373 -37.7074 8.73342  255 255 255
-2.42842 -30.1805 43.913  255 255 255
50.6416 -39.0603 12.3076  255 255 255
-13.4395 -31.6647 39.3309  255 255 255
-22.7982 -34.25 30.1074  255 255 255
-0.592024 -32.569 42.0563  255 255 255
16.9221 -35.6724 33.1694  255 255 255
-45.5019 -39.9544 12.7618  255 255 255
-22.7854 -36.0542 29.2374  255 255 255
57.0878 -41.68 15.1663  255 255 255
12.4767 -36.5032 35.1037  255 255 255
3.46434 -35.6585 39.6878  255 255 255
-40.29 -41.4599 16.633  255 255 255
70.2409 -43.7809 19.7581  255 255 255
0.514376 -39.0812 37.6061  255 255 255
1.03104 -39.4083 37.2035  255 255 255
0.99266 -39.3795 37.3578  255 255 255
0.382508 -39.9491 36.8929  255 255 255
0.347544 -39.8817 37.1064  255 255 255
-18.134 -41.2686 31.6737  255 255 255
4.99449 -40.7903 35.4093  255 255 255
5.25586 -42.1666 34.4678  255 255 255
-8.65782 -42.4011 33.5914  255 255 255
61.4351 -50.569 28.3508  255 255 255
-15.967 -45.5693 35.0082  255 255 255
36.6576 -50.7438 26.6903  255 255 255
34.6915 -51.1609 27.3244  255 255 255
34.5459 -51.0261 27.6443  255 255 255
35.2428 -51.2384 27.2385  255 255 255
50.2157 -51.8773 29.0714  255 255 255
-39.8478 -50.8068 26.333  255 255 255
-16.2066 -49.6973 31.7753  255 255 255
48.7247 -52.9275 29.566  255 255 255
30.9497 -52.5436 28.8452  255 255 255
